ply
format ascii 1.0
element vertex 740
property float x
property float y
property float z
end_header
0.328838557004928589 -0.439008712768554688 0.255618423223495483
0.324060767889022827 -0.439880311489105225 0.250715434551239014
0.320476800203323364 -0.450048148632049561 0.257460117340087891
0.325082987546920776 -0.449515074491500854 0.262952715158462524
0.313565492630004883 -0.439978182315826416 0.268727988004684448
0.310588836669921875 -0.442385435104370117 0.259093403816223145
0.31105494499206543 -0.440027177333831787 0.264153003692626953
0.320091068744659424 -0.455120742321014404 0.265998154878616333
0.325769305229187012 -0.44529426097869873 0.26921042799949646
0.309088349342346191 -0.455003589391708374 0.257592827081680298
0.3008536696434021 -0.460278481245040894 0.259369462728500366
0.302077889442443848 -0.462769508361816406 0.26277458667755127
0.311398148536682129 -0.457939833402633667 0.261149376630783081
0.31660538911819458 -0.454778313636779785 0.26029554009437561
0.31340324878692627 -0.458071112632751465 0.266826212406158447
0.297671496868133545 -0.449952781200408936 0.266831189393997192
0.298290908336639404 -0.452073037624359131 0.261884927749633789
0.29814225435256958 -0.451378613710403442 0.271319568157196045
0.329926580190658569 -0.435222387313842773 0.262620151042938232
0.319131046533584595 -0.439243078231811523 0.248183682560920715
0.300780296325683594 -0.457012832164764404 0.275701761245727539
0.299108505249023438 -0.453704774379730225 0.274287551641464233
0.299434185028076172 -0.456221818923950195 0.258508116006851196
0.30698472261428833 -0.451459348201751709 0.258056879043579102
0.303274869918823242 -0.463110148906707764 0.267992138862609863
0.303108632564544678 -0.460697412490844727 0.273388892412185669
0.295667350292205811 -0.466258585453033447 0.267857939004898071
0.295309126377105713 -0.464041262865066528 0.273428946733474731
0.293410778045654297 -0.460097134113311768 0.275643616914749146
0.292681515216827393 -0.456529378890991211 0.273930460214614868
0.292715370655059814 -0.454030632972717285 0.27101820707321167
0.294983863830566406 -0.464961886405944824 0.262609392404556274
0.294749796390533447 -0.462747633457183838 0.260281026363372803
0.294928908348083496 -0.458562463521957397 0.259676247835159302
0.290498018264770508 -0.46546703577041626 0.261163234710693359
0.289224743843078613 -0.467252999544143677 0.266531646251678467
0.280290067195892334 -0.464169234037399292 0.271756589412689209
0.275349915027618408 -0.465234100818634033 0.271102488040924072
0.275229811668395996 -0.462902545928955078 0.271212846040725708
0.280348896980285645 -0.462081223726272583 0.272628068923950195
0.284128844738006592 -0.464376568794250488 0.272826433181762695
0.28650432825088501 -0.4626808762550354 0.274292439222335815
0.285678863525390625 -0.466467440128326416 0.271218985319137573
0.281243979930877686 -0.46767956018447876 0.270247668027877808
0.278063297271728516 -0.469411373138427734 0.265326559543609619
0.276328325271606445 -0.468707412481307983 0.269357532262802124
0.282915592193603516 -0.468130558729171753 0.266046792268753052
0.286349713802337646 -0.467538386583328247 0.267808020114898682
0.271347880363464355 -0.464705735445022583 0.269746482372283936
0.272134900093078613 -0.466415941715240479 0.270355910062789917
0.289235353469848633 -0.46548616886138916 0.272088110446929932
0.287117540836334229 -0.458335220813751221 0.273386657238006592
0.280842602252960205 -0.459118694067001343 0.271665781736373901
0.27545851469039917 -0.460235536098480225 0.269945591688156128
0.271878421306610107 -0.462110638618469238 0.267675995826721191
0.276513755321502686 -0.458455801010131836 0.267412573099136353
0.281684637069702148 -0.456880867481231689 0.268917500972747803
0.27342379093170166 -0.460332274436950684 0.265489578247070312
0.277521133422851562 -0.457909584045410156 0.264497876167297363
0.282618939876556396 -0.455815255641937256 0.26542016863822937
0.289087295532226562 -0.454481303691864014 0.266706347465515137
0.287957191467285156 -0.455711603164672852 0.270420312881469727
0.2750893235206604 -0.459665864706039429 0.263918578624725342
0.270858526229858398 -0.467922329902648926 0.266683191061019897
0.271446585655212402 -0.465295374393463135 0.264092326164245605
0.272148847579956055 -0.469461262226104736 0.268595725297927856
0.284169971942901611 -0.46807253360748291 0.263340920209884644
0.278816163539886475 -0.469144344329833984 0.262749016284942627
0.284766852855682373 -0.466624975204467773 0.26023593544960022
0.279247820377349854 -0.467730224132537842 0.260353356599807739
0.274487316608428955 -0.470196634531021118 0.265540421009063721
0.274354636669158936 -0.469525188207626343 0.263665556907653809
0.293451845645904541 -0.453095167875289917 0.267036199569702148
0.294470727443695068 -0.454716205596923828 0.262685000896453857
0.290581464767456055 -0.455666184425354004 0.262684226036071777
0.283782541751861572 -0.457089066505432129 0.261263430118560791
0.291516542434692383 -0.458775430917739868 0.259585440158843994
0.290405452251434326 -0.462735921144485474 0.259065568447113037
0.285491645336151123 -0.464103490114212036 0.258743852376937866
0.284914791584014893 -0.460580050945281982 0.258653640747070312
0.279612898826599121 -0.462079018354415894 0.258728623390197754
0.279563009738922119 -0.465164482593536377 0.258862197399139404
0.278508305549621582 -0.45913657546043396 0.261031031608581543
0.275663435459136963 -0.464975416660308838 0.260161817073822021
0.27471458911895752 -0.467569261789321899 0.261449128389358521
0.276572465896606445 -0.462801694869995117 0.259725242853164673
0.275322556495666504 -0.461088955402374268 0.261652946472167969
0.273264169692993164 -0.462824314832687378 0.262547552585601807
0.316827595233917236 -0.436554193496704102 0.249868184328079224
0.314274013042449951 -0.452016234397888184 0.233986765146255493
0.314348042011260986 -0.450987875461578369 0.2383432537317276
0.311622142791748047 -0.452795505523681641 0.238151431083679199
0.31184762716293335 -0.453333675861358643 0.233758717775344849
0.319492220878601074 -0.453432917594909668 0.24493919312953949
0.322672903537750244 -0.456407010555267334 0.244689181447029114
0.316970765590667725 -0.459583401679992676 0.243648260831832886
0.314350545406341553 -0.456542849540710449 0.244270652532577515
0.324585616588592529 -0.459551811218261719 0.240013360977172852
0.318801760673522949 -0.462036490440368652 0.239326715469360352
0.325341641902923584 -0.437410622835159302 0.239309102296829224
0.330454856157302856 -0.437780112028121948 0.2378043532371521
0.326174318790435791 -0.450594305992126465 0.24319341778755188
0.322206765413284302 -0.448119103908538818 0.243546724319458008
0.31741669774055481 -0.44330906867980957 0.22493976354598999
0.321170330047607422 -0.445211023092269897 0.222639083862304688
0.322777152061462402 -0.438477963209152222 0.219599008560180664
0.319501161575317383 -0.43514975905418396 0.220879673957824707
0.316619873046875 -0.451303184032440186 0.242460921406745911
0.312539517879486084 -0.454180508852005005 0.2418203204870224
0.314923942089080811 -0.453785598278045654 0.23020075261592865
0.316588819026947021 -0.456464141607284546 0.22783660888671875
0.318953424692153931 -0.453972727060317993 0.226864069700241089
0.316179603338241577 -0.451187849044799805 0.22901366651058197
0.316875040531158447 -0.438679635524749756 0.232818037271499634
0.315964192152023315 -0.441647648811340332 0.22891390323638916
0.316720813512802124 -0.433441519737243652 0.224878817796707153
0.317149877548217773 -0.432694375514984131 0.230633527040481567
0.320053637027740479 -0.43841022253036499 0.236512035131454468
0.330912411212921143 -0.444753319025039673 0.225593775510787964
0.325832188129425049 -0.445842087268829346 0.222811728715896606
0.323221534490585327 -0.455645620822906494 0.227785944938659668
0.327089071273803711 -0.456147432327270508 0.232390493154525757
0.318469732999801636 -0.447889596223831177 0.241113945841789246
0.315656185150146484 -0.448702454566955566 0.232703641057014465
0.31581464409828186 -0.448334634304046631 0.237313419580459595
0.322666943073272705 -0.460479110479354858 0.233590617775917053
0.329055607318878174 -0.453376322984695435 0.238754689693450928
0.313591897487640381 -0.45798105001449585 0.227264642715454102
0.307916402816772461 -0.46119844913482666 0.22700926661491394
0.308976590633392334 -0.464246243238449097 0.228089019656181335
0.315776407718658447 -0.461277931928634644 0.228477820754051208
0.319417357444763184 -0.459530234336853027 0.22903403639793396
0.317554652690887451 -0.462963461875915527 0.232888594269752502
0.305780649185180664 -0.455779373645782471 0.237661868333816528
0.306295573711395264 -0.455880045890808105 0.232997894287109375
0.306207180023193359 -0.457489669322967529 0.240956425666809082
0.334064215421676636 -0.440205156803131104 0.232606023550033569
0.308932006359100342 -0.463439971208572388 0.242636829614639282
0.307066977024078369 -0.460213065147399902 0.242955967783927917
0.30708998441696167 -0.457964479923248291 0.229245439171791077
0.31237417459487915 -0.455161422491073608 0.229833543300628662
0.310185909271240234 -0.46618419885635376 0.232293933629989624
0.310639858245849609 -0.465624868869781494 0.23839154839515686
0.30408787727355957 -0.468499660491943359 0.231945022940635681
0.30473482608795166 -0.468692034482955933 0.238261237740516663
0.303758502006530762 -0.465847641229629517 0.242251113057136536
0.30304563045501709 -0.462247282266616821 0.242678746581077576
0.30270683765411377 -0.459457129240036011 0.240843892097473145
0.303347766399383545 -0.465689778327941895 0.227574020624160767
0.303043484687805176 -0.462537616491317749 0.227201536297798157
0.303149223327636719 -0.459813147783279419 0.229690521955490112
0.29831230640411377 -0.467004865407943726 0.228118062019348145
0.298168063163757324 -0.469898313283920288 0.232112929224967957
0.293143033981323242 -0.468617677688598633 0.241097956895828247
0.289479970932006836 -0.469156801700592041 0.241512268781661987
0.289145052433013916 -0.467303484678268433 0.242134273052215576
0.293540596961975098 -0.466857939958572388 0.242376416921615601
0.29668503999710083 -0.468877702951431274 0.240595310926437378
0.298773348331451416 -0.467398136854171753 0.241620063781738281
0.297422051429748535 -0.470258265733718872 0.237858310341835022
0.29339754581451416 -0.47105833888053894 0.23845905065536499
0.288771688938140869 -0.471843153238296509 0.234357774257659912
0.289311647415161133 -0.472069531679153442 0.238875865936279297
0.292915761470794678 -0.471524238586425781 0.23385562002658844
0.296220898628234863 -0.470777630805969238 0.234403491020202637
0.285348355770111084 -0.468584984540939331 0.241389662027359009
0.286511600017547607 -0.470182210206985474 0.241418689489364624
0.300250351428985596 -0.469607800245285034 0.237630471587181091
0.299128174781799316 -0.463743507862091064 0.242333680391311646
0.293588101863861084 -0.464494526386260986 0.242438465356826782
0.288219451904296875 -0.465186327695846558 0.241950780153274536
0.284552335739135742 -0.46647191047668457 0.24012485146522522
0.288632452487945557 -0.463234961032867432 0.240292966365814209
0.293913364410400391 -0.462197571992874146 0.240943804383277893
0.285456180572509766 -0.464637637138366699 0.238624691963195801
0.289345145225524902 -0.46210440993309021 0.238065510988235474
0.294381320476531982 -0.460524857044219971 0.238249883055686951
0.299714565277099609 -0.45899885892868042 0.237815886735916138
0.299432933330535889 -0.460896968841552734 0.240762785077095032
0.286632657051086426 -0.463462978601455688 0.237567692995071411
0.283820211887359619 -0.470541238784790039 0.238115161657333374
0.283597648143768311 -0.467985033988952637 0.237009644508361816
0.285681784152984619 -0.472532093524932861 0.238893777132034302
0.292875587940216064 -0.47034299373626709 0.231214120984077454
0.288181304931640625 -0.470802575349807739 0.232122883200645447
0.293182432651519775 -0.468032747507095337 0.229182124137878418
0.287957370281219482 -0.468585163354873657 0.231007620692253113
0.286117196083068848 -0.472391963005065918 0.235490933060646057
0.284978568553924561 -0.471044957637786865 0.234441816806793213
0.302625298500061035 -0.457498699426651001 0.237636283040046692
0.302838981151580811 -0.457761138677597046 0.233495473861694336
0.299710929393768311 -0.458847850561141968 0.233644887804985046
0.294434010982513428 -0.460241347551345825 0.23445640504360199
0.299339890480041504 -0.460798412561416626 0.229723095893859863
0.298772633075714111 -0.463606119155883789 0.227573901414871216
0.293360710144042969 -0.465127527713775635 0.228940576314926147
0.293798267841339111 -0.46202850341796875 0.230635315179824829
0.288842618465423584 -0.463522285223007202 0.23238961398601532
0.288264811038970947 -0.465988218784332275 0.231095105409622192
0.289317607879638672 -0.462030351161956787 0.235156401991844177
0.28537517786026001 -0.466304659843444824 0.233810156583786011
0.284691274166107178 -0.468559682369232178 0.233818098902702332
0.286371409893035889 -0.464608550071716309 0.234019279479980469
0.286248266696929932 -0.464016258716583252 0.235795170068740845
0.284558534622192383 -0.465794622898101807 0.236272841691970825
0.326345443725585938 -0.43970450758934021 0.220280736684799194
0.271589040756225586 -0.382670223712921143 0.262856930494308472
0.269348502159118652 -0.378706097602844238 0.265450835227966309
0.260246485471725464 -0.390062123537063599 0.252305984497070312
0.267001509666442871 -0.389566540718078613 0.255524784326553345
0.253706961870193481 -0.387093901634216309 0.252079635858535767
0.252517282962799072 -0.378578782081604004 0.259623467922210693
0.251630634069442749 -0.382636189460754395 0.255378454923629761
0.270642697811126709 -0.386618465185165405 0.259566634893417358
0.264810472726821899 -0.37557685375213623 0.266666591167449951
0.25731205940246582 -0.375320643186569214 0.264243751764297485
0.258918285369873047 -0.381270438432693481 0.274183690547943115
0.252135872840881348 -0.382042944431304932 0.271232634782791138
0.24727177619934082 -0.385238379240036011 0.265133053064346313
0.248249918222427368 -0.38882148265838623 0.260038018226623535
0.251498520374298096 -0.391672462224960327 0.255959570407867432
0.265644073486328125 -0.383222460746765137 0.272438287734985352
0.268720149993896484 -0.386466622352600098 0.269072771072387695
0.268336296081542969 -0.389945924282073975 0.264262974262237549
0.261193990707397461 -0.388600200414657593 0.279413342475891113
0.253352582454681396 -0.390333503484725952 0.282789558172225952
0.241490781307220459 -0.397386610507965088 0.277809858322143555
0.240162402391433716 -0.400359511375427246 0.281010627746582031
0.241291254758834839 -0.402785122394561768 0.277140915393829346
0.242027133703231812 -0.399152189493179321 0.27341887354850769
0.243404477834701538 -0.395074009895324707 0.276642471551895142
0.243859604001045227 -0.394098579883575439 0.271856337785720825
0.243741631507873535 -0.395060062408447266 0.283589482307434082
0.245936393737792969 -0.393209517002105713 0.280793488025665283
0.249057084321975708 -0.392558008432388306 0.284305453300476074
0.248803034424781799 -0.394482314586639404 0.287357568740844727
0.241701275110244751 -0.397906839847564697 0.28683134913444519
0.241724833846092224 -0.40180620551109314 0.288511157035827637
0.240052953362464905 -0.402802646160125732 0.284036636352539062
0.241652831435203552 -0.405070692300796509 0.282129406929016113
0.24752315878868103 -0.390404820442199707 0.278504312038421631
0.245877325534820557 -0.395025134086608887 0.264121770858764648
0.244376718997955322 -0.400920569896697998 0.268856227397918701
-0.00468843616545200348 0.112816646695137024 -0.0179936140775680542
-0.00496992655098438263 0.12308763712644577 -0.0116635337471961975
0.244193136692047119 -0.405095577239990234 0.274207115173339844
0.245261996984481812 -0.406972050666809082 0.280110716819763184
0.249020710587501526 -0.406403064727783203 0.272796839475631714
0.24921107292175293 -0.402804672718048096 0.266060799360275269
0.249602660536766052 -0.407288640737533569 0.278486669063568115
0.253761172294616699 -0.406106829643249512 0.273501753807067871
0.255310148000717163 -0.402885496616363525 0.266783446073532104
0.257150977849960327 -0.396429657936096191 0.258918166160583496
0.250455498695373535 -0.396224647760391235 0.259210348129272461
0.252787142992019653 -0.406982302665710449 0.277535676956176758
0.244127839803695679 -0.405198812484741211 0.288064718246459961
0.248153537511825562 -0.406312674283981323 0.285612225532531738
0.253610283136367798 -0.39470285177230835 0.286980599164962769
0.251767635345458984 -0.39843413233757019 0.289880573749542236
0.247100889682769775 -0.39724200963973999 0.290021181106567383
0.258567839860916138 -0.394991099834442139 0.284799277782440186
0.255742579698562622 -0.399954319000244141 0.287922322750091553
0.245217055082321167 -0.400176405906677246 0.2910957932472229
0.248470321297645569 -0.402044475078582764 0.290814518928527832
0.258020877838134766 -0.39344063401222229 0.255558818578720093
0.264420270919799805 -0.392897158861160278 0.259170353412628174
0.263306319713592529 -0.39527815580368042 0.263048917055130005
0.260386765003204346 -0.401220798492431641 0.270747661590576172
0.266675651073455811 -0.393115699291229248 0.269511222839355469
0.265760987997055054 -0.390065521001815796 0.275617271661758423
0.262089133262634277 -0.396561622619628906 0.281490534543991089
0.263106763362884521 -0.39871641993522644 0.276286691427230835
0.259021520614624023 -0.402892351150512695 0.280727624893188477
0.25829845666885376 -0.401547878980636597 0.284588277339935303
0.257048189640045166 -0.404648125171661377 0.276812911033630371
0.254737287759780884 -0.404536128044128418 0.285076618194580078
0.252140253782272339 -0.403741270303726196 0.288359403610229492
0.256046831607818604 -0.404672771692276001 0.282365322113037109
0.254319459199905396 -0.40597301721572876 0.28033447265625
0.251736462116241455 -0.406429767608642578 0.282807469367980957
0.320049703121185303 -0.43180885910987854 0.217452168464660645
0.316537380218505859 -0.42946392297744751 0.22216498851776123
0.316167145967483521 -0.42559581995010376 0.217349261045455933
0.314002573490142822 -0.42152780294418335 0.211044281721115112
0.31710052490234375 -0.419226527214050293 0.201833456754684448
0.311564981937408447 -0.417466998100280762 0.215942561626434326
0.313743650913238525 -0.422035276889801025 0.222386389970779419
0.314979612827301025 -0.426965296268463135 0.229640722274780273
0.308688998222351074 -0.409468382596969604 0.214845746755599976
0.00903601199388504028 0.0363725051283836365 0.137453719973564148
0.00965688563883304596 0.0176662765443325043 0.142281562089920044
0.206670701503753662 -0.0897028148174285889 0.0677777752280235291
0.219480738043785095 -0.0790880024433135986 0.07449311763048172
0.260656058788299561 -0.0476030260324478149 0.0490693338215351105
0.265129119157791138 -0.040845334529876709 0.0266793034970760345
0.064702741801738739 -0.251188933849334717 0.126293778419494629
0.11000969260931015 -0.161499723792076111 -0.0699744150042533875
0.112722203135490417 -0.140713945031166077 -0.0703558847308158875
0.0363372117280960083 -0.1372174471616745 -0.0931016504764556885
0.0562142841517925262 -0.141369298100471497 -0.0932116210460662842
0.143611356616020203 -0.2034100741147995 0.0394387915730476379
0.142690286040306091 -0.184683769941329956 0.0418779999017715454
0.10225290060043335 -0.224342659115791321 0.0958449095487594604
0.102599024772644043 -0.204437389969825745 0.098361574113368988
0.135268315672874451 -0.230043843388557434 0.0601695403456687927
0.0803834199905395508 -0.193551495671272278 -0.0921389311552047729
0.0992156565189361572 -0.197347834706306458 -0.0850645154714584351
0.0944439172744750977 -0.175649493932723999 -0.0824753269553184509
0.0762171447277069092 -0.170828297734260559 -0.0905608534812927246
0.0175499394536018372 -0.13456369936466217 -0.0881310626864433289
0.0175091754645109177 -0.160676315426826477 -0.0881298556923866272
0.149324104189872742 -0.158003583550453186 0.0211781449615955353
0.149136438965797424 -0.149897366762161255 -0.00495362281799316406
0.132061094045639038 -0.131988212466239929 -0.0507914982736110687
0.116952799260616302 -0.121434330940246582 -0.0668463706970214844
0.0993233919143676758 -0.110551260411739349 -0.0772306472063064575
0.0801281854510307312 -0.10017026960849762 -0.0840578228235244751
0.0866119638085365295 -0.187621995806694031 0.117979899048805237
0.0670509785413742065 -0.168870493769645691 0.131319582462310791
0.142998680472373962 -0.165533512830734253 0.0464535355567932129
0.0223962590098381042 -0.192049965262413025 0.145278453826904297
0.064776785671710968 -0.0658547356724739075 -0.085935935378074646
0.0416458770632743835 -0.0607185885310173035 -0.0881614238023757935
0.143294006586074829 -0.141366690397262573 -0.0294069014489650726
0.0263784900307655334 -0.027745954692363739 0.15564313530921936
0.0448189228773117065 -0.0245318114757537842 0.15587615966796875
0.0442973002791404724 -0.0418223068118095398 0.161016851663589478
0.0264382213354110718 -0.0454615876078605652 0.159636437892913818
0.0618958622217178345 -0.0396069400012493134 0.160507738590240479
0.0787094160914421082 -0.0378099046647548676 0.158059254288673401
0.0940730199217796326 -0.0366014279425144196 0.15434575080871582
0.129775732755661011 -0.0387957431375980377 0.137925505638122559
0.119520410895347595 -0.0371567122638225555 0.144091010093688965
0.14622439444065094 -0.0446908921003341675 0.120753981173038483
0.138591289520263672 -0.0412041470408439636 0.130327001214027405
0.152364030480384827 -0.0502441562712192535 0.107689701020717621
0.155658721923828125 -0.056982140988111496 0.0908712893724441528
0.159392654895782471 -0.049463324248790741 0.0698572844266891479
0.158472076058387756 -0.0630799084901809692 0.0720674470067024231
0.153117343783378601 -0.0711657255887985229 0.094158470630645752
0.149648383259773254 -0.063648320734500885 0.110404208302497864
0.143954262137413025 -0.0583940260112285614 0.123698115348815918
0.0150501765310764313 -0.110937975347042084 0.152384042739868164
0.0116891497746109962 -0.0879690423607826233 0.158087104558944702
0.00818326603621244431 0.0546010397374629974 0.133037492632865906
0.30352512001991272 -0.258285492658615112 0.0216847360134124756
0.299783170223236084 -0.296329379081726074 0.16035798192024231
0.0151749653741717339 0.12550017237663269 -0.0117158293724060059
0.0374950356781482697 0.129783838987350464 -0.0107304155826568604
0.109280005097389221 0.130247443914413452 0.00592537224292755127
0.129931405186653137 0.130756974220275879 0.0273726433515548706
0.086060352623462677 0.128693848848342896 -0.0076316148042678833
0.0615588836371898651 0.124460078775882721 -0.0148867666721343994
0.130173787474632263 -0.154048532247543335 0.0736067816615104675
0.0386868230998516083 0.0968026071786880493 -0.0322397500276565552
0.0631759688258171082 0.114206291735172272 -0.0231756418943405151
0.0891904905438423157 0.118459105491638184 -0.0171633437275886536
0.116577692329883575 0.119823738932609558 -0.00431665778160095215
0.144179493188858032 0.118428923189640045 0.0175087042152881622
0.161148563027381897 0.109187811613082886 0.0239822976291179657
0.178281813859939575 0.0860383287072181702 0.0139005370438098907
0.199854671955108643 0.0734509006142616272 0.0245340466499328613
0.204488411545753479 0.0802848935127258301 0.0438035577535629272
0.19362892210483551 0.0882411226630210876 0.0394160449504852295
0.188521057367324829 0.0805228278040885925 0.0200939886271953583
0.253811359405517578 -0.00815492868423461914 0.0236634723842144012
0.254643172025680542 -0.0348809212446212769 0.000920537859201431274
0.257222235202789307 -0.0238704532384872437 0.0142302177846431732
0.246760815382003784 -0.0432017296552658081 -0.0115323923528194427
0.239562928676605225 -0.047497287392616272 -0.0181562900543212891
0.229880765080451965 -0.0486387759447097778 -0.022337011992931366
0.217797905206680298 -0.0447199642658233643 -0.0241179019212722778
0.184534355998039246 -0.0239852890372276306 -0.0164057090878486633
0.174556910991668701 -0.0156625881791114807 -0.0131325498223304749
0.164524182677268982 -0.0130380801856517792 -0.0247190818190574646
0.161439523100852966 -0.0144234783947467804 -0.0289963036775588989
0.146690428256988525 -0.033585868775844574 -0.0456784367561340332
0.138204902410507202 -0.0463941022753715515 -0.05297812819480896
-0.00550648942589759827 0.153632745146751404 0.0127011984586715698
0.126200482249259949 -0.0593886449933052063 -0.0619300156831741333
0.00120654888451099396 -0.0346674397587776184 -0.0823790132999420166
0.000970109598711133003 -0.0130890756845474243 -0.0793924033641815186
0.000189557438716292381 -0.107922382652759552 -0.0827805474400520325
0.000702650053426623344 -0.0842450857162475586 -0.0861358642578125
0.121826082468032837 -0.298711806535720825 -0.0994134098291397095
0.11656372994184494 -0.279954522848129272 -0.0934704169631004333
0.0968273133039474487 -0.28167995810508728 -0.10343652218580246
0.000963615544606000185 -0.261928945779800415 -0.102982468903064728
0.000768966390751302242 -0.239789858460426331 -0.0929414704442024231
-0.000178724178113043308 -0.184892594814300537 -0.0827326327562332153
-0.000404778751544654369 -0.159534603357315063 -0.0810051858425140381
0.102343253791332245 -0.300978392362594604 -0.11034141480922699
0.0464399382472038269 -0.239775270223617554 -0.0986334457993507385
-0.000225934898480772972 0.0196622051298618317 -0.0687470734119415283
-0.000811662059277296066 0.03169245645403862 -0.0602068118751049042
-0.00147221237421035767 0.0476016923785209656 -0.0534735023975372314
0.0238814614713191986 -0.239236220717430115 -0.0968685373663902283
0.160185739398002625 -0.282611846923828125 -0.0371743179857730865
0.164052858948707581 -0.287436693906784058 -0.0105737969279289246
0.134455502033233643 -0.278850406408309937 -0.079034954309463501
0.149487927556037903 -0.279870957136154175 -0.0602827630937099457
0.161074072122573853 -0.2943878173828125 0.0156854782253503799
0.102273501455783844 -0.329654186964035034 0.0933202654123306274
0.0825585648417472839 -0.336888372898101807 0.107498474419116974
0.0412759669125080109 -0.34648430347442627 0.126280814409255981
0.0208048243075609207 -0.348629385232925415 0.130364149808883667
0.152188748121261597 -0.30324968695640564 0.0393746532499790192
0.0618993230164051056 -0.342540711164474487 0.118812389671802521
0.138320416212081909 -0.312656641006469727 0.0595479309558868408
0.120949096977710724 -0.321555674076080322 0.0772377476096153259
0.0677222684025764465 -0.240120843052864075 -0.0979560539126396179
0.0717469900846481323 -0.262388229370117188 -0.102877497673034668
-0.00727420905604958534 0.104831047356128693 0.128829717636108398
-0.00761774554848670959 0.0973592773079872131 0.124512091279029846
0.091945946216583252 -0.261956721544265747 -0.098338693380355835
0.058344326913356781 0.0124228522181510925 -0.075253613293170929
0.0379996821284294128 0.0101112565025687218 -0.0756484121084213257
0.0789982229471206665 0.0152624668553471565 -0.0737877190113067627
0.0954139009118080139 0.0366779416799545288 -0.0636716857552528381
0.0980661064386367798 0.0202840361744165421 -0.0681211873888969421
0.115614965558052063 0.0232744887471199036 -0.0605012476444244385
-0.0065025007352232933 0.112330973148345947 0.135639548301696777
-0.0075619993731379509 0.0343979708850383759 0.137707516551017761
-0.00749113783240318298 0.0153505653142929077 0.142120525240898132
0.113425366580486298 0.0374527424573898315 -0.0566082969307899475
-0.00488948076963424683 -0.0904679074883460999 0.154513835906982422
-0.00463160127401351929 -0.113138556480407715 0.149588733911514282
-0.00769226253032684326 0.0522198043763637543 0.1329326331615448
-0.00460027344524860382 -0.133168771862983704 0.143415600061416626
0.145603135228157043 0.0311088655143976212 -0.0402242988348007202
0.144734054803848267 0.0219520032405853271 -0.0427107810974121094
0.155842065811157227 0.0184817351400852203 -0.0364427268505096436
0.157945618033409119 0.0270899198949337006 -0.0347121730446815491
0.174252226948738098 0.012994794175028801 -0.0252447277307510376
0.165846526622772217 0.014976082369685173 -0.0314803346991539001
0.181983485817909241 0.0100034140050411224 -0.0184802711009979248
0.192455321550369263 0.00509358197450637817 -0.017164379358291626
0.204144880175590515 0.0253488682210445404 -0.0119652301073074341
0.192985832691192627 0.0307409875094890594 -0.0143169313669204712
0.148583412170410156 0.0410669408738613129 -0.0361848250031471252
0.132405668497085571 0.0463835336267948151 -0.0431964173913002014
0.0363133810460567474 0.0406851395964622498 -0.0617719143629074097
0.0173741262406110764 0.0354476273059844971 -0.0601545870304107666
0.161727800965309143 -0.0641997531056404114 0.0520761460065841675
0.164824724197387695 -0.062884405255317688 0.0312021039426326752
0.166426271200180054 -0.0590176209807395935 0.0121990106999874115
0.165609925985336304 -0.0527604110538959503 -0.00410644710063934326
0.164057984948158264 -0.044806845486164093 -0.0184569582343101501
0.159799948334693909 -0.0353369526565074921 -0.030177779495716095
0.158437743782997131 -0.0183672569692134857 -0.0339826345443725586
0.153710275888442993 -0.0247589126229286194 -0.0392422527074813843
0.000722921744454652071 -0.474753379821777344 -0.125641852617263794
0.153059959411621094 -0.00872004963457584381 -0.0393589138984680176
0.146635696291923523 -0.0132178915664553642 -0.0460251793265342712
0.134953960776329041 0.0118541847914457321 -0.0520833954215049744
0.140398949384689331 -0.000835664570331573486 -0.0502421706914901733
0.130905985832214355 0.0240495949983596802 -0.0512951761484146118
0.130178347229957581 0.0354557149112224579 -0.0480884835124015808
0.114683039486408234 0.0509158223867416382 -0.0506085902452468872
0.0961177349090576172 0.0523725897073745728 -0.0574008971452713013
0.0819205567240715027 0.0813272297382354736 -0.0450550615787506104
0.0783383473753929138 0.0668606013059616089 -0.0537627488374710083
0.0762801393866539001 0.0507263503968715668 -0.0618925616145133972
0.0757497549057006836 0.0334356501698493958 -0.0689921528100967407
0.0816434100270271301 0.153651997447013855 0.0327945351600646973
0.0605803616344928741 0.153422877192497253 0.0195384398102760315
0.217978522181510925 -0.0356040596961975098 -0.0225941017270088196
0.226040184497833252 -0.0367134064435958862 -0.0207429602742195129
0.000681243604049086571 -0.417867988348007202 -0.149185419082641602
0.000680023862514644861 -0.393658041954040527 -0.149392068386077881
0.22179807722568512 -0.028021596372127533 -0.0197462588548660278
0.217521294951438904 -0.0294627547264099121 -0.0213710442185401917
0.232971921563148499 -0.0342866182327270508 -0.0170174688100814819
0.240128278732299805 -0.0305383503437042236 -0.0114708617329597473
0.23392033576965332 -0.0185022354125976562 -0.0115441903471946716
0.226371929049491882 -0.0254060477018356323 -0.0172142684459686279
0.246803537011146545 -0.0227204710245132446 -0.00209160149097442627
0.239816561341285706 -0.0124472081661224365 -0.00449141860008239746
0.249730601906776428 -0.0131352543830871582 0.00754288583993911743
0.248685076832771301 -0.00214476883411407471 0.0146072395145893097
0.24465566873550415 0.00148156285285949707 0.00930055975914001465
0.243360564112663269 -0.00478218495845794678 0.00327470153570175171
0.224565625190734863 0.0329587161540985107 0.00575997307896614075
0.233275547623634338 0.0223139002919197083 0.00798365473747253418
0.240194991230964661 0.0107563957571983337 0.00906204059720039368
0.202735364437103271 -0.00125987082719802856 -0.0177990421652793884
0.212525025010108948 -0.00799943506717681885 -0.0177725255489349365
0.220417112112045288 -0.0158690959215164185 -0.0172806307673454285
0.227158918976783752 -0.00883720070123672485 -0.0125265419483184814
0.218543335795402527 -0.000291757285594940186 -0.0138191729784011841
0.000696091679856181145 -0.43892437219619751 -0.144914180040359497
0.208691015839576721 0.00757163017988204956 -0.0151407569646835327
0.0558439604938030243 0.0305568557232618332 -0.0702549964189529419
0.0369598492980003357 0.0255878623574972153 -0.0699687004089355469
-0.000203628675080835819 -0.452014535665512085 0.112127847969532013
-0.00014287757221609354 -0.466713815927505493 0.109148852527141571
0.177832499146461487 0.0222928952425718307 -0.0229340791702270508
-0.000980218872427940369 -0.480199724435806274 0.101932123303413391
-0.00102513749152421951 -0.493383407592773438 0.0924998372793197632
0.168808341026306152 0.0246377177536487579 -0.0290441811084747314
0.187110751867294312 0.0199369248002767563 -0.0174338817596435547
0.198315665125846863 0.0148403793573379517 -0.015597999095916748
0.182642921805381775 0.0333758220076560974 -0.0190082639455795288
0.172601133584976196 0.035353437066078186 -0.0245319977402687073
0.161337733268737793 0.0376397371292114258 -0.0302510857582092285
0.0556776337325572968 0.0458970852196216583 -0.0632863268256187439
0.018226010724902153 0.0214033853262662888 -0.0689840167760848999
0.000614543503616005182 -0.344776183366775513 -0.140222594141960144
0.000741037074476480484 -0.322091788053512573 -0.131547391414642334
0.000843816378619521856 -0.369317889213562012 0.126430436968803406
-0.00612840708345174789 0.118915118277072906 0.141868934035301208
-0.00293714902363717556 0.191533103585243225 0.0536406040191650391
-0.00770039577037096024 0.0876103788614273071 0.121887460350990295
-0.00768761243671178818 0.0765439346432685852 0.124182149767875671
-0.000470520928502082825 -0.518021643161773682 -0.00348208099603652954
-0.00758154783397912979 0.0642640665173530579 0.129423230886459351
9.2884991317987442e-05 -0.519619405269622803 -0.0163583382964134216
-0.000229101628065109253 -0.132528811693191528 -0.0810525268316268921
0.177119463682174683 0.0294846147298812866 0.109613023698329926
0.190819486975669861 0.0513383224606513977 0.105454221367835999
0.203303232789039612 0.069218173623085022 0.0910574495792388916
0.20760047435760498 0.0796368718147277832 0.0678660869598388672
0.246817082166671753 -0.206014662981033325 -0.0138923972845077515
0.018973425030708313 -0.186209872364997864 -0.0894693881273269653
0.0214244294911623001 -0.212226748466491699 -0.0918344706296920776
0.042288362979888916 -0.213451921939849854 -0.0952943563461303711
0.020486198365688324 -0.0593030042946338654 -0.0868089348077774048
0.0189237110316753387 0.00727984681725502014 -0.0761876553297042847
0.104622423648834229 -0.0688673704862594604 0.159478247165679932
0.0917604491114616394 -0.0691645592451095581 0.164362818002700806
0.0927112698554992676 -0.0531107634305953979 0.160016849637031555
0.105994924902915955 -0.0528347492218017578 0.155093491077423096
0.125620454549789429 -0.0682790800929069519 0.145471513271331787
0.116148672997951508 -0.0685509145259857178 0.152903392910957336
0.117729581892490387 -0.0529095977544784546 0.148843377828598022
0.127763599157333374 -0.0535161010921001434 0.141864806413650513
0.133938074111938477 -0.0693515613675117493 0.13691297173500061
0.136469513177871704 -0.0551445558667182922 0.133697569370269775
0.114383190870285034 -0.0848885774612426758 0.155140414834022522
0.103280790150165558 -0.0855561345815658569 0.161731153726577759
0.0907496362924575806 -0.0855131521821022034 0.166244387626647949
0.130961284041404724 -0.0835720673203468323 0.138976067304611206
0.123368293046951294 -0.0838531553745269775 0.147398859262466431
0.00450825877487659454 0.1209535151720047 0.142091721296310425
0.00614835694432258606 0.0797937065362930298 0.125515639781951904
0.00543045811355113983 0.090401865541934967 0.123662859201431274
0.0103972498327493668 -0.0677569657564163208 0.159094855189323425
0.00906344689428806305 -0.03246317058801651 0.154060095548629761
0.00933538191020488739 -0.017173323780298233 0.148536205291748047
0.00974353961646556854 -0.000266423448920249939 0.145369887351989746
0.00744847580790519714 0.067581571638584137 0.129600510001182556
0.00958878640085458755 -0.0499567426741123199 0.157260507345199585
0.168968707323074341 -0.472909301519393921 -0.0757863819599151611
0.151024982333183289 -0.491244018077850342 -0.093763597309589386
0.156463369727134705 -0.463824301958084106 -0.0951408147811889648
0.142279550433158875 -0.477259397506713867 -0.107702955603599548
0.16630081832408905 -0.392777949571609497 -0.0756840556859970093
0.164892137050628662 -0.419428527355194092 -0.0813188031315803528
0.167184814810752869 -0.364708185195922852 -0.071580156683921814
0.121881067752838135 -0.485344827175140381 -0.120697885751724243
0.0954038277268409729 -0.488374680280685425 -0.130387231707572937
0.0935152769088745117 -0.467212587594985962 -0.140343084931373596
0.151544585824012756 -0.36698538064956665 -0.0960354506969451904
0.151590675115585327 -0.393879294395446777 -0.0994788482785224915
0.162291377782821655 -0.443405449390411377 -0.0884037762880325317
0.149701386690139771 -0.442607402801513672 -0.105754151940345764
0.148204445838928223 -0.457752466201782227 -0.106142684817314148
0.11858522891998291 -0.46638953685760498 -0.128986269235610962
0.136850669980049133 -0.463059753179550171 -0.116502732038497925
0.0347191169857978821 -0.323648035526275635 -0.131713569164276123
0.0634203851222991943 -0.323935210704803467 -0.130194664001464844
0.0595270358026027679 -0.303290188312530518 -0.1208810955286026
0.127681896090507507 -0.319326549768447876 -0.105829723179340363
0.139905974268913269 -0.29678228497505188 -0.082918018102645874
0.134861305356025696 -0.444507211446762085 -0.120910346508026123
0.116131864488124847 -0.444764018058776855 -0.134959906339645386
0.0913761630654335022 -0.443976789712905884 -0.146279081702232361
0.0907123982906341553 -0.368261486291885376 -0.140908867120742798
0.0902964994311332703 -0.392472445964813232 -0.146093994379043579
0.113813415169715881 -0.394165277481079102 -0.134986847639083862
0.113841615617275238 -0.368799716234207153 -0.130243808031082153
0.131758198142051697 -0.342576026916503906 -0.111489176750183105
0.133652165532112122 -0.368595153093338013 -0.115523956716060638
0.0899173542857170105 -0.344692856073379517 -0.133858978748321533
0.112006574869155884 -0.343792945146560669 -0.124651364982128143
0.107908479869365692 -0.321123629808425903 -0.117835715413093567
0.134312033653259277 -0.395339667797088623 -0.119227990508079529
0.0614747144281864166 -0.417483717203140259 -0.154640540480613708
0.0899801701307296753 -0.418561339378356934 -0.148381277918815613
0.0316959917545318604 -0.416502624750137329 -0.152881324291229248
0.0867751985788345337 -0.322675615549087524 -0.125499874353408813
0.0821318700909614563 -0.302151799201965332 -0.116620957851409912
0.0765747055411338806 -0.28233674168586731 -0.108543269336223602
0.0635347440838813782 -0.215912967920303345 -0.0953231006860733032
0.147974103689193726 -0.686769843101501465 0.112341821193695068
0.00618608668446540833 -0.531475543975830078 0.0247549191117286682
0.00407079048454761505 -0.528179824352264404 -0.00311227515339851379
0.181781679391860962 -0.427827894687652588 0.0403036437928676605
0.188449651002883911 -0.451796412467956543 -0.0324854142963886261
0.176831558346748352 -0.447295248508453369 -0.0623381957411766052
0.0361042171716690063 -0.518400430679321289 0.0888024494051933289
0.0194542352110147476 -0.528506040573120117 0.0686030164361000061
0.1649027019739151 -0.434590697288513184 0.0709552615880966187
0.116125248372554779 -0.476408809423446655 0.104409240186214447
0.00977206043899059296 -0.532250940799713135 0.0464789345860481262
0.150858744978904724 -0.420300513505935669 -0.102645762264728546
0.134821906685829163 -0.422089099884033203 -0.12074616551399231
0.114709340035915375 -0.420576751232147217 -0.136852070689201355
0.0620824024081230164 -0.442289948463439941 -0.151949942111968994
0.0312292128801345825 -0.439712733030319214 -0.150388836860656738
0.0237356666475534439 -0.47142106294631958 0.106227725744247437
0.0189648382365703583 -0.462379336357116699 0.108904317021369934
0.010236877016723156 -0.465195298194885254 0.108761683106422424
0.0107431840151548386 -0.478713095188140869 0.103316277265548706
0.101882107555866241 -0.348049581050872803 0.0915140435099601746
0.0808517187833786011 -0.355390459299087524 0.10496511310338974
0.0389160327613353729 -0.365190684795379639 0.121960513293743134
0.0193747319281101227 -0.367835104465484619 0.125608205795288086
0.155798301100730896 -0.320750296115875244 0.0394893847405910492
0.05946306511759758 -0.361103951930999756 0.115220591425895691
0.141258835792541504 -0.330405056476593018 0.0595178566873073578
0.122350923717021942 -0.339542597532272339 0.0768099278211593628
0.107342056930065155 -1.12519598007202148 -0.0702111721038818359
0.108620099723339081 -1.15301847457885742 -0.0731907039880752563
0.107880592346191406 -1.14933645725250244 -0.0878346413373947144
0.104930326342582703 -1.1202770471572876 -0.0846519172191619873
0.121204093098640442 -1.11029160022735596 -0.112214222550392151
0.109765753149986267 -1.11410045623779297 -0.104139506816864014
0.135963574051856995 -1.1092231273651123 -0.115242466330528259
0.132183566689491272 -1.13945388793945312 -0.121288478374481201
0.143842190504074097 -1.14072966575622559 -0.116157606244087219
0.149709045886993408 -1.11109483242034912 -0.111053094267845154
0.158705443143844604 -1.11341845989227295 -0.102448165416717529
0.163424655795097351 -1.14859533309936523 -0.0789578258991241455
0.16897052526473999 -1.12175488471984863 -0.072003588080406189
0.165165424346923828 -1.1161797046661377 -0.0911235660314559937
0.160362958908081055 -1.14464795589447021 -0.0976403802633285522
0.163742795586585999 -1.12924683094024658 -0.0538623183965682983
0.159754425287246704 -1.15373325347900391 -0.0606843531131744385
0.150054618716239929 -1.1339571475982666 -0.0427645891904830933
0.114336855709552765 -1.12981390953063965 -0.05635853111743927
0.114488393068313599 -1.15671586990356445 -0.0573831051588058472
0.118825770914554596 -1.14041948318481445 -0.118040338158607483
0.110478736460208893 -1.14315986633300781 -0.109131172299385071
0.104988828301429749 -1.11749720573425293 -0.0945653170347213745
0.108767502009868622 -1.14652514457702637 -0.0983350425958633423
0.107704930007457733 -1.17732763290405273 -0.0899382978677749634
0.101877503097057343 -1.18139100074768066 -0.0725663900375366211
0.115790665149688721 -1.17009007930755615 -0.124776452779769897
0.112214192748069763 -1.17274391651153564 -0.112589284777641296
0.139116853475570679 -1.16941249370574951 -0.120887234807014465
0.127720087766647339 -1.16847455501556396 -0.12910182774066925
0.161004588007926941 -1.17131459712982178 -0.104563996195793152
0.152956441044807434 -1.14236819744110107 -0.107730165123939514
0.150481328368186951 -1.17021000385284424 -0.113110587000846863
0.163406461477279663 -1.17389869689941406 -0.0863139480352401733
0.16027282178401947 -1.17783164978027344 -0.0643264651298522949
0.111573502421379089 -1.18181109428405762 -0.0553170889616012573
0.111305557191371918 -1.17419302463531494 -0.101825028657913208
0.205338448286056519 -1.2623443603515625 0.0762634947896003723
0.209533005952835083 -1.26190125942230225 0.0742516890168190002
0.21124713122844696 -1.26625704765319824 0.0743841752409934998
0.204975023865699768 -1.26758551597595215 0.077357068657875061
0.165019601583480835 -1.26202106475830078 0.0988562256097793579
0.173704624176025391 -1.25990426540374756 0.0989019870758056641
0.175787091255187988 -1.26860642433166504 0.0964756980538368225
0.16391107439994812 -1.27159595489501953 0.0969920158386230469
0.197931289672851562 -1.27165901660919189 0.0850323885679244995
0.193231493234634399 -1.27190232276916504 0.086734771728515625
0.192958742380142212 -1.26835572719573975 0.090684548020362854
0.20060303807258606 -1.2676318883895874 0.0879341214895248413
0.227069824934005737 -1.26455605030059814 0.0343425199389457703
0.223391115665435791 -1.26524567604064941 0.036824837327003479
0.223615124821662903 -1.26083171367645264 0.0394147709012031555
0.228354543447494507 -1.26077604293823242 0.0355302095413208008
0.218917667865753174 -1.26913714408874512 0.055107511579990387
0.215478554368019104 -1.27002310752868652 0.0574852265417575836
0.215729057788848877 -1.2657545804977417 0.0605591759085655212
0.221199020743370056 -1.26538050174713135 0.0564715862274169922
0.170051664113998413 -1.25490713119506836 0.0749199390411376953
0.173365294933319092 -1.25630497932434082 0.0890453904867172241
0.160652607679367065 -1.25956404209136963 0.0896577611565589905
0.155187457799911499 -1.25446164608001709 0.0759602412581443787
0.153639614582061768 -1.26883280277252197 0.0873092785477638245
0.160460889339447021 -1.27371430397033691 0.0828948467969894409
0.155400991439819336 -1.27380573749542236 0.0688969716429710388
0.14818766713142395 -1.26582491397857666 0.072020992636680603
0.173300325870513916 -1.27325165271759033 0.0820064842700958252
0.169665530323982239 -1.27262508869171143 0.0690527558326721191
0.177129983901977539 -1.26388800144195557 0.0719824433326721191
0.182529211044311523 -1.26432716846466064 0.0856752693653106689
0.196391969919204712 -1.26245355606079102 0.0678325369954109192
0.202797085046768188 -1.26469886302947998 0.0786649882793426514
0.196805804967880249 -1.2593768835067749 0.0817505568265914917
0.191261172294616699 -1.2553553581237793 0.0702419653534889221
0.189172104001045227 -1.26030528545379639 0.084821745753288269
0.18104204535484314 -1.25667965412139893 0.0745544880628585815
0.178037986159324646 -1.26631832122802734 0.0741127431392669678
0.183881759643554688 -1.26741385459899902 0.0862928181886672974
0.188508868217468262 -1.27222311496734619 0.0810216963291168213
0.182151734828948975 -1.27134048938751221 0.069205261766910553
0.191062852740287781 -1.26972436904907227 0.0663618296384811401
0.197120293974876404 -1.27145564556121826 0.0775152295827865601
0.201962977647781372 -1.26079797744750977 0.0711387991905212402
0.19672095775604248 -1.25646281242370605 0.0629309862852096558
0.206037744879722595 -1.25462853908538818 0.0581851080060005188
0.209158897399902344 -1.2594141960144043 0.0682752877473831177
0.19856560230255127 -1.27018570899963379 0.0593965500593185425
0.194015473127365112 -1.26603734493255615 0.0634935945272445679
0.197985246777534485 -1.26844632625579834 0.0722666531801223755
0.202704489231109619 -1.27194392681121826 0.0690773501992225647
0.209935322403907776 -1.27108335494995117 0.0664504244923591614
0.207089155912399292 -1.26855778694152832 0.0558145642280578613
0.210943758487701416 -1.26125454902648926 0.0564304441213607788
0.213824495673179626 -1.26487326622009277 0.0666790381073951721
0.220210328698158264 -1.25794351100921631 0.0510135143995285034
0.217964857816696167 -1.25312197208404541 0.041519705206155777
0.221447139978408813 -1.25987124443054199 0.0393852256238460541
0.222767636179924011 -1.26378095149993896 0.0488821938633918762
0.211301684379577637 -1.25447547435760498 0.0469575598835945129
0.214392617344856262 -1.25842559337615967 0.054330039769411087
0.211060225963592529 -1.26796567440032959 0.0449278503656387329
0.209128692746162415 -1.26095843315124512 0.0492436513304710388
0.210109412670135498 -1.26361215114593506 0.0561015233397483826
0.212189793586730957 -1.27028739452362061 0.0529031157493591309
0.219430506229400635 -1.26934957504272461 0.0491541549563407898
0.217948064208030701 -1.26727759838104248 0.0395181030035018921
0.229579374194145203 -1.25991940498352051 0.0282283816486597061
0.228026404976844788 -1.25433504581451416 0.030375942587852478
0.226575642824172974 -1.25153720378875732 0.0218007732182741165
0.227528318762779236 -1.25820755958557129 0.018506733700633049
0.221228033304214478 -1.25171244144439697 0.0281653385609388351
0.222487762570381165 -1.25451576709747314 0.034292273223400116
0.219403535127639771 -1.26504373550415039 0.0263717677444219589
0.219586834311485291 -1.25774586200714111 0.0298056770116090775
0.219175592064857483 -1.25980532169342041 0.035119377076625824
0.220204159617424011 -1.26623213291168213 0.0325657874345779419
0.226909175515174866 -1.26522696018218994 0.0285685863345861435
0.224396601319313049 -1.26402747631072998 0.0206564608961343765
0.151059091091156006 -1.2506941556930542 0.0618722774088382721
