ply
format ascii 1.0
element vertex 739
property float x
property float y
property float z
end_header
0.22226250171661377 -1.1359483003616333 0.0552299991250038147
0.22603917121887207 -1.12769734859466553 0.0510585196316242218
0.222898617386817932 -1.12795662879943848 0.0841214507818222046
0.223178744316101074 -1.11880779266357422 0.056860852986574173
0.124828658998012543 -1.02709436416625977 -0.00824175775051116943
0.124332800507545471 -1.00122249126434326 -0.00620639324188232422
0.137953490018844604 -1.00252056121826172 -0.00196121633052825928
0.138200834393501282 -1.02749300003051758 -0.00523625314235687256
0.151642546057701111 -1.02625775337219238 -0.00873762369155883789
0.124772630631923676 -1.05085718631744385 -0.00498080253601074219
0.139201432466506958 -1.04987812042236328 -0.00312761217355728149
0.152564436197280884 -1.04970002174377441 -0.0098163411021232605
0.172419652342796326 -1.06319117546081543 -0.0565865412354469299
0.166284427046775818 -1.06052672863006592 -0.0752159729599952698
0.151073545217514038 -1.05976831912994385 -0.0832566246390342712
0.139471143484115601 -1.05871045589447021 -0.0926599055528640747
0.127980679273605347 -1.05795395374298096 -0.10116344690322876
0.112398438155651093 -1.07140552997589111 -0.0131500810384750366
0.126403108239173889 -1.06936132907867432 0.00228733569383621216
0.142488390207290649 -1.06699919700622559 0.00501445680856704712
0.157043427228927612 -1.06693089008331299 -0.00494418293237686157
0.137286573648452759 -1.11727702617645264 0.0901236683130264282
0.156607583165168762 -1.11349081993103027 0.0878871381282806396
0.148179799318313599 -1.10404551029205322 0.0689757019281387329
0.132646769285202026 -1.11565291881561279 0.0682661980390548706
0.174409046769142151 -1.11462485790252686 0.080469764769077301
0.166662812232971191 -1.10254776477813721 0.0613798350095748901
0.19076266884803772 -1.11463212966918945 0.0686463117599487305
0.182672977447509766 -1.10487186908721924 0.0497499890625476837
0.205510884523391724 -1.11456060409545898 0.0546788722276687622
0.196674749255180359 -1.10840368270874023 0.0365630649030208588
0.218199834227561951 -1.11649298667907715 0.0419701561331748962
0.20925922691822052 -1.11416041851043701 0.0234544128179550171
0.224744632840156555 -1.12653672695159912 0.0349258929491043091
0.217502281069755554 -1.1246955394744873 0.015265587717294693
0.130995124578475952 -1.13512575626373291 0.0849612951278686523
0.128012523055076599 -1.13219869136810303 0.0629435107111930847
0.141161561012268066 -1.14634513854980469 0.0796108245849609375
0.138511002063751221 -1.14516532421112061 0.0579811036586761475
0.159014225006103516 -1.14478528499603271 0.0754517167806625366
0.154932126402854919 -1.14393317699432373 0.0531059876084327698
0.214232876896858215 -1.1373753547668457 0.0181297566741704941
0.219973906874656677 -1.13780450820922852 0.0386369340121746063
0.177790313959121704 -1.14260220527648926 0.0673469379544258118
0.172813117504119873 -1.14136087894439697 0.044857565313577652
0.194651320576667786 -1.14158022403717041 0.0572811588644981384
0.189047724008560181 -1.14090657234191895 0.0350051112473011017
0.208548069000244141 -1.14038848876953125 0.0471825450658798218
0.202879786491394043 -1.14043903350830078 0.0256292689591646194
0.138313353061676025 -1.09656941890716553 0.0456156134605407715
0.15783342719078064 -1.0895458459854126 0.0411540903151035309
0.17296658456325531 -1.09332120418548584 0.0288437269628047943
0.18662300705909729 -1.0996931791305542 0.0145179964601993561
0.198285430669784546 -1.10995233058929443 0.000717077404260635376
0.207793980836868286 -1.12150049209594727 -0.00745853409171104431
0.179820194840431213 -1.08730983734130859 -0.013372369110584259
0.187927484512329102 -1.10736370086669922 -0.0249679237604141235
0.195196807384490967 -1.12048697471618652 -0.0300463810563087463
0.184784963726997375 -1.11881208419799805 -0.0529648624360561371
0.179520249366760254 -1.10449063777923584 -0.050383884459733963
0.163032412528991699 -1.10230493545532227 -0.0906998515129089355
0.170919954776763916 -1.10216021537780762 -0.0728032514452934265
0.176566436886787415 -1.11687266826629639 -0.0760903060436248779
0.168788224458694458 -1.11877751350402832 -0.0955293625593185425
0.175767406821250916 -1.08596181869506836 -0.0419170781970024109
0.169543072581291199 -1.0833972692489624 -0.0656577795743942261
0.159950822591781616 -1.08120906352996826 -0.0815994963049888611
0.146237894892692566 -1.11883008480072021 -0.115821212530136108
0.144464179873466492 -1.10077953338623047 -0.11312827467918396
0.155211091041564941 -1.10206615924835205 -0.10353243350982666
0.15916028618812561 -1.11926805973052979 -0.107909634709358215
0.12736240029335022 -1.12177693843841553 -0.116694375872612
0.126781627535820007 -1.10280108451843262 -0.116975024342536926
0.111340887844562531 -1.10681390762329102 -0.103057265281677246
0.111608818173408508 -1.12480461597442627 -0.103658512234687805
0.141370400786399841 -1.07915151119232178 -0.102625653147697449
0.15017998218536377 -1.08058774471282959 -0.0925983637571334839
0.127538174390792847 -1.07991254329681396 -0.108006671071052551
0.114419832825660706 -1.08288395404815674 -0.0967264547944068909
0.108011879026889801 -1.10811865329742432 -0.0816016942262649536
0.111143536865711212 -1.08457386493682861 -0.0781035348773002625
0.106414273381233215 -1.12595677375793457 -0.0832475647330284119
0.127385109663009644 -1.11381161212921143 0.0428076386451721191
0.126970455050468445 -1.12766051292419434 0.0376996994018554688
0.165478542447090149 -1.07928693294525146 0.0096369422972202301
0.1488504558801651 -1.07802116870880127 0.0211606509983539581
0.128310486674308777 -1.08705389499664307 0.0172045081853866577
0.11960727721452713 -1.11030542850494385 0.0157184302806854248
0.123390689492225647 -1.12547099590301514 0.0103993415832519531
0.112962916493415833 -1.11086034774780273 -0.00995065271854400635
0.118984490633010864 -1.12448239326477051 -0.0139547474682331085
0.136131748557090759 -1.13767921924591064 0.0327996611595153809
0.133184894919395447 -1.13205826282501221 0.00586249306797981262
0.127815946936607361 -1.13112127780914307 -0.0180327706038951874
0.108944058418273926 -1.11059045791625977 -0.0320024155080318451
0.113555252552032471 -1.12458932399749756 -0.0349163375794887543
0.108502991497516632 -1.10920882225036621 -0.0503639206290245056
0.110284917056560516 -1.12459361553192139 -0.052311234176158905
0.107815317809581757 -1.12510526180267334 -0.0669980794191360474
0.108648166060447693 -1.10821878910064697 -0.0653925389051437378
0.108077473938465118 -1.0884101390838623 -0.0505321770906448364
0.108981572091579437 -1.08607101440429688 -0.0639002397656440735
0.108089789748191833 -1.09115374088287354 -0.0317963361740112305
0.11310887336730957 -1.09089136123657227 -0.0088191106915473938
0.205795407295227051 -1.13482511043548584 -0.00565513968467712402
0.194926679134368896 -1.13230395317077637 -0.0291295237839221954
0.183594167232513428 -1.13003218173980713 -0.0516504943370819092
0.174559399485588074 -1.13046026229858398 -0.0745035707950592041
0.164583653211593628 -1.1319737434387207 -0.0917341560125350952
0.155453667044639587 -1.13218557834625244 -0.102151110768318176
0.144004702568054199 -1.13177645206451416 -0.108967378735542297
0.128790721297264099 -1.13237500190734863 -0.108272939920425415
0.1170206218957901 -1.13419520854949951 -0.0992783010005950928
0.113816149532794952 -1.1362684965133667 -0.0833829417824745178
0.114372789859771729 -1.13713908195495605 -0.0692933648824691772
0.121570035815238953 -1.13329195976257324 -0.0389216989278793335
0.116753801703453064 -1.13610196113586426 -0.0553230270743370056
0.103959217667579651 -1.07069385051727295 -0.0320597514510154724
0.104548774659633636 -1.06770431995391846 -0.0501445978879928589
0.107924476265907288 -1.06520426273345947 -0.0625194907188415527
0.116116993129253387 -1.06025636196136475 -0.0914487987756729126
0.112187646329402924 -1.06278073787689209 -0.0746945887804031372
0.150530040264129639 -1.14034855365753174 0.027110738679766655
0.167245477437973022 -1.13885998725891113 0.0189485941082239151
0.182576179504394531 -1.1386406421661377 0.00957739539444446564
0.195490941405296326 -1.13841474056243896 0.00104806944727897644
0.186458662152290344 -1.13636422157287598 -0.023633396252989769
0.174440160393714905 -1.13667786121368408 -0.0164919979870319366
0.159602433443069458 -1.13714230060577393 -0.00804324448108673096
0.145057439804077148 -1.13534307479858398 0.000294793397188186646
0.175588026642799377 -1.1354069709777832 -0.0462452135980129242
0.164939224720001221 -1.13664126396179199 -0.0395075380802154541
0.15109039843082428 -1.13698363304138184 -0.032484009861946106
0.138471230864524841 -1.13555824756622314 -0.0239813048392534256
0.130955174565315247 -1.13830149173736572 -0.0449043959379196167
0.141802087426185608 -1.13857710361480713 -0.0533887073397636414
0.154373764991760254 -1.13782858848571777 -0.0596801713109016418
0.164605721831321716 -1.13597917556762695 -0.0672698095440864563
0.155608117580413818 -1.13633668422698975 -0.0834901481866836548
0.146085336804389954 -1.13774621486663818 -0.0754934176802635193
0.134872555732727051 -1.13889145851135254 -0.0689552128314971924
0.125808015465736389 -1.13931715488433838 -0.0615383200347423553
0.148873120546340942 -1.1361541748046875 -0.0928857102990150452
0.13157007098197937 -1.13610744476318359 -0.100297912955284119
0.141261309385299683 -1.13589036464691162 -0.0988244041800498962
0.123420685529708862 -1.13768494129180908 -0.0951534956693649292
0.122320950031280518 -1.13873124122619629 -0.0842087268829345703
0.123367905616760254 -1.13938271999359131 -0.0732204169034957886
0.129760652780532837 -1.13807010650634766 -0.0863736197352409363
0.131849020719528198 -1.13855600357055664 -0.0786116421222686768
0.141485303640365601 -1.13732004165649414 -0.0849810168147087097
0.137186884880065918 -1.1368720531463623 -0.091323167085647583
0.128619551658630371 -1.13738524913787842 -0.0923159569501876831
0.132585257291793823 -1.13678836822509766 -0.0947388261556625366
0.167097032070159912 -1.0686337947845459 -0.0276306420564651489
-0.0028734598308801651 0.313021689653396606 0.0465313121676445007
-0.0015589776448905468 0.259579181671142578 -0.00283958204090595245
0.115257218480110168 -0.736249148845672607 0.104569405317306519
0.131127610802650452 -0.738703787326812744 0.108425512909889221
0.147478103637695312 -0.736547470092773438 0.108922228217124939
0.137084648013114929 -0.306604057550430298 0.122488722205162048
0.0845341309905052185 -0.108303770422935486 0.141940206289291382
0.0891260281205177307 -0.0672598406672477722 0.142076894640922546
0.086634419858455658 -0.0886124074459075928 0.141184002161026001
0.143036589026451111 -0.332899272441864014 0.126847118139266968
0.13712349534034729 -0.0324885919690132141 0.0910583436489105225
-0.00162870180793106556 -0.322756022214889526 -0.11117967963218689
-0.00127389212138950825 0.221488431096076965 -0.0261574164032936096
0.108996003866195679 0.106574274599552155 0.171188786625862122
-0.00176460400689393282 -0.232289984822273254 -0.121410936117172241
0.0779430195689201355 0.417581528425216675 0.167422324419021606
0.0755731314420700073 0.416705191135406494 0.165217369794845581
0.0752213001251220703 0.413261502981185913 0.163458392024040222
0.0741986855864524841 0.41315796971321106 0.158762350678443909
0.0738776400685310364 0.412351667881011963 0.154992610216140747
0.0740454494953155518 0.411824882030487061 0.152686119079589844
0.0766308829188346863 0.414725631475448608 0.161216750741004944
0.0750029608607292175 0.418466717004776001 0.158965766429901123
0.0762630626559257507 0.416916102170944214 0.162452831864356995
0.0771388113498687744 0.41594773530960083 0.163333147764205933
-0.00637876708060503006 0.14337688684463501 0.166202053427696228
-0.00588383106514811516 0.125443875789642334 0.16703459620475769
-0.00504020415246486664 0.10861603170633316 0.167768090963363647
-0.00426547182723879814 0.0905979499220848083 0.16806146502494812
-0.00512450467795133591 0.332874506711959839 0.259751230478286743
-0.00569981010630726814 -0.160178884863853455 0.164880186319351196
-0.00511542754247784615 -0.147820070385932922 0.16486281156539917
-0.00378353754058480263 -0.0729670822620391846 -0.0658760368824005127
-0.00723476195707917213 -0.198923200368881226 0.160061419010162354
-0.00441171694546937943 -0.134393393993377686 0.16836664080619812
-0.00109452498145401478 0.0887973234057426453 -0.0666829273104667664
-0.00357609009370207787 0.0726569294929504395 0.168123483657836914
-0.00696047022938728333 -0.215830668807029724 0.155490905046463013
-0.00149986846372485161 0.157833188772201538 -0.0553017258644104004
-0.00307839526794850826 -0.116569362580776215 0.172140344977378845
-0.00304727605544030666 -0.297495722770690918 0.145361632108688354
-0.00131150602828711271 -0.0534792579710483551 0.171572238206863403
-0.0537256449460983276 0.45294681191444397 0.252671420574188232
-0.064084179699420929 0.446379870176315308 0.240638434886932373
-0.0588353723287582397 0.435460567474365234 0.249370083212852478
-0.0482308939099311829 0.438692927360534668 0.259488761425018311
-0.0551089644432067871 0.426236271858215332 0.255160152912139893
-0.0451815873384475708 0.427425563335418701 0.262427717447280884
-0.0701864287257194519 0.437675952911376953 0.228354483842849731
-0.0655701756477355957 0.430103421211242676 0.238432765007019043
-0.0707180500030517578 0.396113127470016479 0.224409624934196472
-0.0688422918319702148 0.405292600393295288 0.225983470678329468
-0.0742758214473724365 0.403934121131896973 0.216797947883605957
-0.0747827813029289246 0.39199480414390564 0.213930264115333557
-0.0692085772752761841 0.369662433862686157 0.219430088996887207
-0.0710720792412757874 0.362107068300247192 0.206533938646316528
-0.0655852407217025757 0.352357327938079834 0.216084107756614685
-0.0630350708961486816 0.360979527235031128 0.227006390690803528
-0.0311824195086956024 0.373937636613845825 0.253064095973968506
-0.0345295853912830353 0.380055099725723267 0.252096295356750488
-0.0403185524046421051 0.374232441186904907 0.250440359115600586
-0.0361929088830947876 0.367310643196105957 0.251219093799591064
-0.0224740132689476013 0.383913516998291016 0.260620951652526855
-0.0182930100709199905 0.386678367853164673 0.267592191696166992
-0.0188882555812597275 0.392858326435089111 0.263550698757171631
-0.0237471573054790497 0.389340639114379883 0.257699489593505859
-0.0259357616305351257 0.368406921625137329 0.253873109817504883
-0.0310041941702365875 0.361590832471847534 0.251587122678756714
-0.0250318869948387146 0.374931007623672485 0.258115887641906738
-0.0267836004495620728 0.37965315580368042 0.255547881126403809
-0.0213612169027328491 0.367906928062438965 0.268409848213195801
-0.0183882992714643478 0.367910116910934448 0.273288577795028687
-0.019539540633559227 0.373554855585098267 0.274156570434570312
-0.0229286402463912964 0.373034566640853882 0.267448604106903076
-0.024760715663433075 0.367797970771789551 0.258828938007354736
-0.0208763610571622849 0.364556342363357544 0.260809123516082764
-0.0224015302956104279 0.36671823263168335 0.263923853635787964
-0.0248980410397052765 0.370797038078308105 0.261988192796707153
-0.0219730585813522339 0.37843593955039978 0.264003098011016846
-0.018551291897892952 0.380276381969451904 0.271326422691345215
-0.0144232381135225296 0.38081592321395874 0.27827221155166626
-0.0151281096041202545 0.372457563877105713 0.281070977449417114
-0.0463834814727306366 0.354107260704040527 0.243660062551498413
-0.0410152263939380646 0.349963575601577759 0.246016576886177063
-0.0364731289446353912 0.355594813823699951 0.249309331178665161
-0.041636202484369278 0.360612213611602783 0.248262837529182434
-0.0218015946447849274 0.361709296703338623 0.257171690464019775
-0.0241261683404445648 0.344620794057846069 0.256966054439544678
-0.0184899121522903442 0.345351874828338623 0.261086344718933105
-0.0187582094222307205 0.349744051694869995 0.261388838291168213
-0.0249601155519485474 0.349064618349075317 0.257171511650085449
-0.0516090616583824158 0.339598715305328369 0.232200324535369873
-0.0516765229403972626 0.331381916999816895 0.227274090051651001
-0.045193210244178772 0.330850481986999512 0.234640583395957947
-0.0454839169979095459 0.337562024593353271 0.237666293978691101
-0.0426247045397758484 0.32424849271774292 0.23290601372718811
-0.049157068133354187 0.322684496641159058 0.224188044667243958
-0.0383002869784832001 0.306475728750228882 0.225353479385375977
-0.03293561190366745 0.312278568744659424 0.236330181360244751
-0.0381626784801483154 0.318318814039230347 0.2334776371717453
-0.0444667898118495941 0.314467966556549072 0.223558157682418823
-0.0207044314593076706 0.317172497510910034 0.245490580797195435
-0.0265865027904510498 0.306549280881881714 0.240846782922744751
-0.019175313413143158 0.302565693855285645 0.244760438799858093
-0.0147573724389076233 0.315529078245162964 0.248265549540519714
-0.0226926058530807495 0.33900916576385498 0.251930147409439087
-0.0232645571231842041 0.341368019580841064 0.254992216825485229
-0.0272785723209381104 0.340872466564178467 0.251295238733291626
-0.0266551338136196136 0.338613361120223999 0.248281091451644897
-0.0310791879892349243 0.338579416275024414 0.245334714651107788
-0.0310070812702178955 0.339251309633255005 0.246291056275367737
-0.0327731892466545105 0.339990109205245972 0.246291995048522949
-0.0329906418919563293 0.338491767644882202 0.244577646255493164
-0.0291422586888074875 0.338645845651626587 0.2465401291847229
-0.0299306176602840424 0.337561339139938354 0.245490372180938721
-0.0276491492986679077 0.336545705795288086 0.247009396553039551
-0.0242522154003381729 0.335292041301727295 0.250038981437683105
-0.0107794543728232384 0.333092570304870605 0.258856207132339478
-0.009996047243475914 0.338094085454940796 0.258301675319671631
-0.0133044598624110222 0.338310420513153076 0.257103323936462402
-0.0149272913113236427 0.333079159259796143 0.256563156843185425
-0.0312343686819076538 0.341784387826919556 0.249375343322753906
-0.0285611525177955627 0.343279659748077393 0.252627313137054443
-0.0301339179277420044 0.346720188856124878 0.253014504909515381
-0.0336383208632469177 0.343944251537322998 0.249440357089042664
-0.036886606365442276 0.346714794635772705 0.248329237103462219
-0.0391943976283073425 0.342054128646850586 0.244079574942588806
-0.0354730784893035889 0.340869247913360596 0.245657816529273987
-0.0317749828100204468 0.336567431688308716 0.24391569197177887
-0.0358710587024688721 0.338113456964492798 0.243189916014671326
-0.0348454937338829041 0.334995537996292114 0.241697072982788086
-0.0323857590556144714 0.331788867712020874 0.24231913685798645
-0.0294607728719711304 0.334472805261611938 0.245192378759384155
-0.026067044585943222 0.332338690757751465 0.248010218143463135
-0.0287626832723617554 0.328601479530334473 0.244546875357627869
-0.0236292779445648193 0.325914949178695679 0.247462838888168335
-0.0214128494262695312 0.330125540494918823 0.251662254333496094
-0.0325443819165229797 0.350890636444091797 0.251802235841751099
-0.0400391519069671631 0.337591230869293213 0.240991294384002686
-0.0438583455979824066 0.343834757804870605 0.241440802812576294
-0.039393249899148941 0.332784354686737061 0.238843291997909546
-0.036835499107837677 0.328109532594680786 0.238493472337722778
-0.0271148290485143661 0.320026665925979614 0.242515251040458679
-0.0327167697250843048 0.323752105236053467 0.239936619997024536
-0.030429154634475708 0.299131393432617188 0.228991642594337463
-0.0213422887027263641 0.294270098209381104 0.232160106301307678
-0.0508457273244857788 0.419701606035232544 0.255049526691436768
-0.0423665940761566162 0.420763671398162842 0.259066879749298096
-0.0508765056729316711 0.41273149847984314 0.249878078699111938
-0.0471583418548107147 0.413464814424514771 0.25263097882270813
-0.0480038337409496307 0.416058659553527832 0.253464162349700928
-0.0525522232055664062 0.41495591402053833 0.249540746212005615
-0.063013032078742981 0.406964808702468872 0.232192367315292358
-0.0648982822895050049 0.400404840707778931 0.231099441647529602
-0.0590214729309082031 0.404629677534103394 0.235876142978668213
-0.0583362877368927002 0.408406674861907959 0.237494766712188721
-0.0516980253159999847 0.396109998226165771 0.242814868688583374
-0.0493174344301223755 0.402796655893325806 0.245536476373672485
-0.0524146892130374908 0.403933256864547729 0.243033140897750854
-0.0559914261102676392 0.397711843252182007 0.239583730697631836
-0.0456255450844764709 0.402230739593505859 0.247704148292541504
-0.0468313880264759064 0.395969778299331665 0.245675429701805115
-0.0419343523681163788 0.396982014179229736 0.247988343238830566
-0.0415283553302288055 0.402477890253067017 0.249308571219444275
-0.0411469116806983948 0.417058885097503662 0.255744636058807373
-0.0416587740182876587 0.414061129093170166 0.254590362310409546
-0.0353244319558143616 0.414079159498214722 0.25424039363861084
-0.0336489863693714142 0.417254716157913208 0.25580325722694397
-0.0250313542783260345 0.408609837293624878 0.249628245830535889
-0.0220177657902240753 0.408230721950531006 0.251486539840698242
-0.0225947163999080658 0.412404268980026245 0.252457857131958008
-0.0259973332285881042 0.410942941904067993 0.250501304864883423
-0.0265092402696609497 0.406618088483810425 0.249922558665275574
-0.024609491229057312 0.404890120029449463 0.251067042350769043
-0.0450984463095664978 0.47670254111289978 0.252875268459320068
-0.0589221194386482239 0.469782978296279907 0.240439429879188538
-0.0403308011591434479 0.457039833068847656 0.262453913688659668
-0.0693875253200531006 0.459278851747512817 0.22814217209815979
-0.075580991804599762 0.446583837270736694 0.216398864984512329
-0.0667796358466148376 0.34406512975692749 0.206818744540214539
-0.0593176446855068207 0.335884660482406616 0.217771336436271667
-0.0586048252880573273 0.344669044017791748 0.224798530340194702
-0.0650475770235061646 0.334250181913375854 0.199705928564071655
-0.0570466071367263794 0.325742185115814209 0.212829887866973877
-0.0429647974669933319 0.305874943733215332 0.208496719598770142
-0.0519142523407936096 0.315197795629501343 0.209474146366119385
-0.0717270597815513611 0.34610256552696228 0.184939324855804443
-0.0687868669629096985 0.33870697021484375 0.176870837807655334
-0.0603332296013832092 0.323963820934295654 0.192616894841194153
-0.0732322484254837036 0.355147778987884521 0.165154844522476196
-0.0702919289469718933 0.354302972555160522 0.156195744872093201
-0.0642532110214233398 0.331946372985839844 0.16529451310634613
-0.0467759966850280762 0.298527657985687256 0.165189087390899658
-0.0589509494602680206 0.307691425085067749 0.15355449914932251
-0.0607238039374351501 0.298402667045593262 0.146534830331802368
-0.0494627766311168671 0.28963056206703186 0.159070327877998352
-0.072781883180141449 0.354626208543777466 0.194099724292755127
-0.0765589103102684021 0.416313856840133667 0.209885746240615845
-0.0783175677061080933 0.402806848287582397 0.204468920826911926
-0.0717810317873954773 0.414785474538803101 0.221707582473754883
-0.0794714391231536865 0.481323778629302979 0.196420550346374512
-0.0840896442532539368 0.46486625075340271 0.189433261752128601
-0.0800328478217124939 0.45617908239364624 0.203710809350013733
-0.0745191648602485657 0.471192210912704468 0.213830947875976562
-0.0522807836532592773 0.514029979705810547 0.212859392166137695
-0.0679342970252037048 0.499815851449966431 0.205084681510925293
-0.0638585835695266724 0.485734403133392334 0.225441619753837585
-0.0492627918720245361 0.496835201978683472 0.235468119382858276
-0.086882077157497406 0.469903469085693359 0.174063503742218018
-0.0819311961531639099 0.488083004951477051 0.175999715924263
-0.0830907151103019714 0.48948320746421814 0.153533592820167542
-0.0876979455351829529 0.472010105848312378 0.156801074743270874
-0.0702812820672988892 0.5084381103515625 0.178422063589096069
-0.0717111378908157349 0.509994745254516602 0.150036320090293884
-0.0684504881501197815 0.361585825681686401 0.143019974231719971
-0.0663445591926574707 0.342190951108932495 0.143589168787002563
-0.0646714717149734497 0.327594757080078125 0.142327457666397095
-0.0586785264313220978 0.318473726511001587 0.160322874784469604
-0.0545600727200508118 0.526762604713439941 0.148221924901008606
-0.0529669374227523804 0.524138927459716797 0.181576088070869446
-0.073598228394985199 0.456130653619766235 0.106752261519432068
-0.079705849289894104 0.444464832544326782 0.119067758321762085
-0.0840569809079170227 0.457343041896820068 0.130389899015426636
-0.0780702307820320129 0.472277790307998657 0.117492780089378357
-0.0637586265802383423 0.467391908168792725 0.0938558578491210938
-0.068017125129699707 0.487211465835571289 0.105758711695671082
-0.0597319714725017548 0.401285260915756226 0.098654329776763916
-0.0496966205537319183 0.405945420265197754 0.0862959772348403931
-0.0440218932926654816 0.387644201517105103 0.0913900285959243774
-0.0530194491147994995 0.383884072303771973 0.102789483964443207
-0.0615388676524162292 0.423166900873184204 0.246365368366241455
-0.0647290945053100586 0.418949276208877563 0.237713336944580078
-0.0595312565565109253 0.415498793125152588 0.242773279547691345
-0.0564373880624771118 0.417951285839080811 0.249180182814598083
-0.0736292079091072083 0.428022384643554688 0.217818796634674072
-0.0692926421761512756 0.423200219869613647 0.228912711143493652
-0.082209371030330658 0.442505449056625366 0.194545969367027283
-0.0858311876654624939 0.450647294521331787 0.182932496070861816
-0.0887728855013847351 0.457909524440765381 0.157119378447532654
-0.0882181078195571899 0.455369442701339722 0.170915365219116211
-0.0823583826422691345 0.434861898422241211 0.128354549407958984
-0.0850648954510688782 0.443359613418579102 0.135852500796318054
-0.0686644688248634338 0.374200403690338135 0.12889435887336731
-0.0607950165867805481 0.379166603088378906 0.114408209919929504
-0.0580362007021903992 0.360213994979858398 0.115217991173267365
-0.0657341256737709045 0.352839559316635132 0.127759397029876709
-0.0405588559806346893 0.370388150215148926 0.0956318527460098267
-0.0486818142235279083 0.36629059910774231 0.105053737759590149
-0.0640602484345436096 0.324774354696273804 0.12234187126159668
-0.0568160489201545715 0.332047611474990845 0.109451696276664734
-0.0588666796684265137 0.323531240224838257 0.104129895567893982
-0.0640233606100082397 0.315518051385879517 0.117342449724674225
-0.0506620034575462341 0.328832030296325684 0.0927944034337997437
-0.047895040363073349 0.338426977396011353 0.0985784977674484253
-0.0387590974569320679 0.34227415919303894 0.0893510356545448303
-0.0404881872236728668 0.332160830497741699 0.0845779404044151306
-0.0247118808329105377 0.277101635932922363 0.173603445291519165
-0.0361542776226997375 0.282711654901504517 0.167229935526847839
-0.039340093731880188 0.274278312921524048 0.161450624465942383
-0.0266144946217536926 0.269561827182769775 0.167071625590324402
-0.0669679045677185059 0.308361917734146118 0.109918534755706787
-0.0632869154214859009 0.318089872598648071 0.0980765447020530701
-0.0662210136651992798 0.396681696176528931 0.111931890249252319
-0.0729293003678321838 0.394526392221450806 0.123366400599479675
-0.0553015135228633881 0.323190867900848389 0.0858853533864021301
-0.0561180785298347473 0.344397842884063721 0.113143257796764374
-0.04725627601146698 0.350518673658370972 0.103179767727851868
-0.0297630131244659424 0.373099029064178467 0.0874993801116943359
-0.0334707535803318024 0.390266567468643188 0.0821162313222885132
-0.0289661586284637451 0.385059058666229248 0.253881067037582397
-0.0322691649198532104 0.400588393211364746 0.250320672988891602
-0.028111673891544342 0.402510464191436768 0.250716984272003174
-0.029194314032793045 0.405515223741531372 0.250437021255493164
-0.0329278185963630676 0.404280751943588257 0.250655293464660645
-0.0223348885774612427 0.438319921493530273 0.271484285593032837
-0.0357135385274887085 0.439618378877639771 0.267284572124481201
-0.033315613865852356 0.426154047250747681 0.267355173826217651
-0.0199953000992536545 0.422537922859191895 0.268608629703521729
-0.0583130940794944763 0.37200242280960083 0.238319069147109985
-0.0523519143462181091 0.360902756452560425 0.241137400269508362
-0.0464865192770957947 0.367775201797485352 0.24723351001739502
-0.0495067983865737915 0.377207249402999878 0.245997816324234009
-0.0555801093578338623 0.409192472696304321 0.240973412990570068
-0.0546946972608566284 0.410571426153182983 0.243697047233581543
-0.0569835826754570007 0.41131359338760376 0.241051241755485535
-0.0495863184332847595 0.346940428018569946 0.23776090145111084
-0.0562332645058631897 0.352987110614776611 0.233274072408676147
-0.0774651840329170227 0.38847583532333374 0.200495690107345581
-0.0665315762162208557 0.413337081670761108 0.230420082807540894
-0.0320527590811252594 0.524005293846130371 0.219375923275947571
-0.0311888493597507477 0.504252433776855469 0.244973212480545044
-0.0321250632405281067 0.535540342330932617 0.185268595814704895
-0.0327308475971221924 0.538587093353271484 0.149130642414093018
-0.0523762181401252747 0.50007331371307373 0.0967866852879524231
-0.0312489606440067291 0.51049506664276123 0.091887935996055603
-0.0278698708862066269 0.485677778720855713 0.0764910057187080383
-0.0488204732537269592 0.477625548839569092 0.0832380875945091248
-0.0370217040181159973 0.410301417112350464 0.0761974826455116272
-0.0277370065450668335 0.345180928707122803 0.0836854204535484314
-0.0293654985725879669 0.332996100187301636 0.0790806040167808533
-0.0290174894034862518 0.480923295021057129 0.260504961013793945
-0.025492444634437561 0.458021700382232666 0.26809614896774292
-0.0778565779328346252 0.434357911348342896 0.20528942346572876
-0.0700772777199745178 0.387062966823577881 0.225729718804359436
-0.0662622600793838501 0.378712207078933716 0.230375126004219055
-0.0622883439064025879 0.388748437166213989 0.236778214573860168
-0.0650408938527107239 0.394091010093688965 0.232786178588867188
-0.0730341449379920959 0.380273878574371338 0.21436658501625061
-0.0750583112239837646 0.374578475952148438 0.199991375207901001
-0.0771464034914970398 0.369406431913375854 0.183065474033355713
-0.0757029280066490173 0.35980689525604248 0.173102244734764099
-0.0810471624135971069 0.485205233097076416 0.132513612508773804
-0.0859400555491447449 0.468998700380325317 0.141043215990066528
-0.0548608005046844482 0.518094897270202637 0.118634119629859924
-0.0711589381098747253 0.502846240997314453 0.124493017792701721
-0.0873685926198959351 0.457331657409667969 0.14394262433052063
-0.0333761535584926605 0.530800819396972656 0.116284392774105072
-0.0185949765145778656 0.354513287544250488 0.261169970035552979
-0.0169794950634241104 0.359090298414230347 0.261375606060028076
-0.0258363410830497742 0.355437636375427246 0.255898475646972656
-0.0163412056863307953 0.328609049320220947 0.254276245832443237
-0.0179007835686206818 0.324142634868621826 0.249713599681854248
-0.0126409148797392845 0.32325136661529541 0.251082837581634521
-0.0116372425109148026 0.327992796897888184 0.255679666996002197
-0.021210571750998497 0.292462944984436035 0.215721100568771362
-0.0316596366465091705 0.297883421182632446 0.211904153227806091
-0.022986244410276413 0.283727675676345825 0.181482270359992981
-0.0340080223977565765 0.289911329746246338 0.174276024103164673
-0.0171576421707868576 0.366783380508422852 0.267107069492340088
-0.017513033002614975 0.366594642400741577 0.264953643083572388
-0.015526866540312767 0.3668631911277771 0.265611410140991211
-0.0156131293624639511 0.3670673668384552 0.267643779516220093
-0.029726959764957428 0.340385973453521729 0.24872182309627533
-0.0134815648198127747 0.345200270414352417 0.263253599405288696
-0.0133514180779457092 0.341651409864425659 0.260698944330215454
-0.00996767356991767883 0.341265112161636353 0.26139533519744873
-0.0100496187806129456 0.344678163528442383 0.263776808977127075
-0.0498475469648838043 0.311685264110565186 0.186487153172492981
-0.0464382171630859375 0.30652889609336853 0.173221901059150696
-0.0649925991892814636 0.306351065635681152 0.132109373807907104
-0.0645968839526176453 0.31584206223487854 0.137862175703048706
-0.0643554329872131348 0.336940139532089233 0.125984832644462585
-0.039699159562587738 0.354848802089691162 0.093359336256980896
-0.0285527855157852173 0.358460515737533569 0.087062440812587738
-0.0159768890589475632 0.360515803098678589 0.0826378539204597473
-0.0173079594969749451 0.375224053859710693 0.0824315547943115234
-0.0338627137243747711 0.298187196254730225 0.195166483521461487
-0.0336509495973587036 0.296009421348571777 0.183023571968078613
-0.0224950443953275681 0.289484173059463501 0.189719498157501221
-0.021823568269610405 0.291901648044586182 0.200653970241546631
-0.0112349614500999451 0.363809973001480103 0.268426895141601562
-0.0121344160288572311 0.363149404525756836 0.266080796718597412
-0.0100886113941669464 0.360603839159011841 0.266500085592269897
-0.00969949550926685333 0.362257421016693115 0.269744515419006348
-0.0182924401015043259 0.365084081888198853 0.262790381908416748
-0.0160869285464286804 0.362175732851028442 0.262029469013214111
-0.0157810971140861511 0.364314764738082886 0.262527912855148315
-0.01921825110912323 0.365929692983627319 0.264602839946746826
-0.0186975840479135513 0.366640180349349976 0.267517298460006714
-0.0138689149171113968 0.366265833377838135 0.272478669881820679
-0.0136708822101354599 0.365585684776306152 0.277592301368713379
-0.0168548077344894409 0.366601914167404175 0.270713061094284058
-0.013212934136390686 0.365544050931930542 0.267237424850463867
-0.0133501291275024414 0.364812254905700684 0.265082657337188721
-0.0154509935528039932 0.365963876247406006 0.263523489236831665
-0.0172432810068130493 0.36604464054107666 0.263508081436157227
-0.0141617655754089355 0.366665482521057129 0.270408689975738525
-0.0159908086061477661 0.366807162761688232 0.269044220447540283
-0.0138934589922428131 0.388299465179443359 0.274279624223709106
-0.0133182331919670105 0.280146479606628418 0.185360357165336609
-0.0125541314482688904 0.285833448171615601 0.193250566720962524
-0.0303388945758342743 0.338820368051528931 0.245950698852539062
-0.0326798036694526672 0.42052072286605835 0.260627686977386475
-0.0564363002777099609 0.386010199785232544 0.24178805947303772
-0.0363276824355125427 0.386432021856307983 0.250712931156158447
-0.0368504896759986877 0.39261782169342041 0.249753519892692566
-0.0427168272435665131 0.389793485403060913 0.247902274131774902
-0.042409997433423996 0.382047325372695923 0.248933732509613037
-0.0237552225589752197 0.417923659086227417 0.259863734245300293
-0.0185961052775382996 0.413000702857971191 0.257558912038803101
-0.0147740431129932404 0.413147032260894775 0.264461129903793335
-0.018273964524269104 0.406706839799880981 0.256069540977478027
-0.0216580349951982498 0.401910364627838135 0.253657758235931396
-0.0199287422001361847 0.398134529590606689 0.258819460868835449
-0.0151597000658512115 0.403901576995849609 0.264405488967895508
-0.0551991909742355347 0.413412570953369141 0.245187938213348389
-0.0532060712575912476 0.411714643239974976 0.246693879365921021
-0.0249607004225254059 0.39413568377494812 0.254699140787124634
-0.0262463539838790894 0.398462921380996704 0.252002239227294922
-0.0312333889305591583 0.395561665296554565 0.250850886106491089
-0.0303936079144477844 0.390308856964111328 0.252172768115997314
-0.0491822659969329834 0.387242496013641357 0.245423018932342529
-0.0612697675824165344 0.412112772464752197 0.236691460013389587
-0.0584873519837856293 0.400746732950210571 0.236887320876121521
-0.0726800784468650818 0.385546863079071045 0.137158870697021484
-0.0767097622156143188 0.398123502731323242 0.132849171757698059
-0.0763657689094543457 0.372297912836074829 0.156401574611663818
-0.0755772516131401062 0.375347167253494263 0.15263192355632782
-0.0712219923734664917 0.368924736976623535 0.153404593467712402
-0.0738312229514122009 0.367193371057510376 0.158587634563446045
-0.0872814133763313293 0.428378880023956299 0.148726701736450195
-0.0865859389305114746 0.427515536546707153 0.153177559375762939
-0.086488872766494751 0.434420734643936157 0.155613690614700317
-0.0861202552914619446 0.435830414295196533 0.14761294424533844
-0.0860678628087043762 0.428546100854873657 0.160549819469451904
-0.0855425000190734863 0.424759089946746826 0.159744411706924438
-0.0852602869272232056 0.423372715711593628 0.163145482540130615
-0.0859387665987014771 0.431116282939910889 0.163741350173950195
-0.0842308774590492249 0.426473766565322876 0.17062842845916748
-0.0854489505290985107 0.437232136726379395 0.177131131291389465
-0.0874758213758468628 0.442222863435745239 0.167232826352119446
-0.0798710435628890991 0.418084830045700073 0.193767040967941284
-0.0820626243948936462 0.429489374160766602 0.185261130332946777
-0.0818182602524757385 0.419396251440048218 0.175386160612106323
-0.0800953656435012817 0.409804582595825195 0.178082704544067383
-0.0777262449264526367 0.375483959913253784 0.169317856431007385
-0.0769596323370933533 0.368621647357940674 0.1640138179063797
-0.0712594315409660339 0.375198692083358765 0.146218806505203247
-0.0594210401177406311 0.447105705738067627 0.0873301327228546143
-0.0690269321203231812 0.438351958990097046 0.100506260991096497
-0.0752973109483718872 0.430017292499542236 0.112787537276744843
-0.079113304615020752 0.423270851373672485 0.123865820467472076
-0.0458940453827381134 0.45534670352935791 0.0761179178953170776
-0.0272383950650691986 0.459266990423202515 0.0690384805202484131
-0.0796484276652336121 0.401023030281066895 0.190025761723518372
-0.079143919050693512 0.397859901189804077 0.176517218351364136
-0.0638567283749580383 0.420186609029769897 0.0981559976935386658
-0.0539827793836593628 0.426862716674804688 0.0849696621298789978
-0.0701799839735031128 0.414019256830215454 0.110994145274162292
-0.0757812634110450745 0.410291314125061035 0.122356131672859192
-0.0411094389855861664 0.433742284774780273 0.0743804723024368286
-0.0236611776053905487 0.434442281723022461 0.0677274465560913086
-0.0214374251663684845 0.412518531084060669 0.0716469213366508484
-0.0816684812307357788 0.379471272230148315 0.158397048711776733
-0.0824148505926132202 0.373652219772338867 0.158143296837806702
-0.0795716121792793274 0.372078090906143188 0.159626096487045288
-0.0796745568513870239 0.377099215984344482 0.162623733282089233
-0.0779543519020080566 0.38647991418838501 0.17271953821182251
-0.0779088437557220459 0.386103719472885132 0.185815826058387756
-0.0143772400915622711 0.395661920309066772 0.270053446292877197
-0.0116785801947116852 0.300943970680236816 0.24677005410194397
-0.00984866730868816376 0.314974129199981689 0.250077426433563232
-0.013319624587893486 0.353700459003448486 0.263840913772583008
-0.0135610979050397873 0.349362730979919434 0.263829886913299561
-0.0100309401750564575 0.348565250635147095 0.264315396547317505
-0.00988076254725456238 0.352765530347824097 0.264434218406677246
-0.0268887244164943695 0.415736258029937744 0.254230976104736328
-0.0195705760270357132 0.392859280109405518 0.076519399881362915
-0.0154228080064058304 0.346985161304473877 0.0805861875414848328
-0.0165018849074840546 0.334072142839431763 0.0758020579814910889
-0.044272545725107193 0.324312388896942139 0.0767295509576797485
-0.0315110422670841217 0.325132399797439575 0.0712439119815826416
-0.00970008037984371185 0.356944292783737183 0.265029698610305786
-0.0128161069005727768 0.357778072357177734 0.264029085636138916
-0.0135927721858024597 0.366380482912063599 0.269217997789382935
-0.0180700719356536865 0.341622859239578247 0.258679330348968506
-0.0134762432426214218 0.363377958536148071 0.26438179612159729
-0.0127608906477689743 0.360975444316864014 0.264362096786499023
-0.00786191597580909729 0.359776407480239868 0.267328560352325439
-0.00787604227662086487 0.356459945440292358 0.265396654605865479
-0.0370154231786727905 0.398717582225799561 0.249586731195449829
-0.0371974222362041473 0.403208941221237183 0.250291109085083008
-0.0119342543184757233 0.364905595779418945 0.271146208047866821
-0.0106903351843357086 0.363331645727157593 0.273529887199401855
-0.0528404973447322845 0.281012684106826782 0.152233153581619263
-0.0627225339412689209 0.289691925048828125 0.138988032937049866
-0.00751078501343727112 0.341140478849411011 0.261615782976150513
-0.00774158164858818054 0.344417482614517212 0.263950765132904053
-0.0800870880484580994 0.404807060956954956 0.167895108461380005
-0.0818613767623901367 0.412682831287384033 0.167738556861877441
-0.0830861777067184448 0.408921271562576294 0.161086723208427429
-0.0812770798802375793 0.402215093374252319 0.161251038312911987
-0.0147015396505594254 0.273667603731155396 0.177609831094741821
-0.0667122602462768555 0.298829942941665649 0.12372300773859024
-0.018041292205452919 0.325363636016845703 0.0682289376854896545
-0.0546382740139961243 0.405574202537536621 0.241079330444335938
-0.0556062236428260803 0.407477289438247681 0.240118056535720825
-0.0297389999032020569 0.413231343030929565 0.252366811037063599
-0.0196780972182750702 0.333959192037582397 0.253978461027145386
-0.0177886541932821274 0.338605791330337524 0.255088746547698975
-0.0121781583875417709 0.288882046937942505 0.203580766916275024
-0.007967337965965271 0.361404538154602051 0.270641863346099854
-0.0846037119626998901 0.419463306665420532 0.154354289174079895
-0.0839882791042327881 0.415892958641052246 0.154082387685775757
-0.0868161246180534363 0.414070755243301392 0.155908733606338501
-0.0871143266558647156 0.417143106460571289 0.157303333282470703
-0.0879852473735809326 0.418766289949417114 0.163085192441940308
-0.0894079431891441345 0.42267879843711853 0.162095323204994202
-0.0904171988368034363 0.419342637062072754 0.159520596265792847
-0.0888779088854789734 0.416146755218505859 0.159669935703277588
-0.0845019221305847168 0.419146120548248291 0.166197419166564941
-0.0856276527047157288 0.414524674415588379 0.162741020321846008
-0.0917205438017845154 0.4245566725730896 0.160359293222427368
-0.0921627730131149292 0.422532230615615845 0.158581197261810303
-0.0866042301058769226 0.426107883453369141 0.157478064298629761
-0.0888794735074043274 0.426346719264984131 0.159737899899482727
-0.090133175253868103 0.429097831249237061 0.155502378940582275
-0.0943097919225692749 0.42653810977935791 0.156656414270401001
-0.0934002548456192017 0.430859833955764771 0.149231284856796265
-0.0981612801551818848 0.427461206912994385 0.151161149144172668
-0.0938381403684616089 0.427959620952606201 0.142687559127807617
-0.0992698296904563904 0.42537301778793335 0.144669622182846069
-0.0789671167731285095 0.385808736085891724 0.164062932133674622
-0.0790872722864151001 0.388283580541610718 0.158183664083480835
-0.0934543609619140625 0.422299772500991821 0.138487517833709717
-0.0993299931287765503 0.420816540718078613 0.139962717890739441
-0.0923279076814651489 0.415051668882369995 0.135144025087356567
-0.0981073901057243347 0.414148211479187012 0.136747241020202637
-0.0909026935696601868 0.406865894794464111 0.133780524134635925
-0.0961722731590270996 0.406500756740570068 0.135237589478492737
-0.0893710032105445862 0.398214459419250488 0.134153947234153748
-0.0944756120443344116 0.398867011070251465 0.136178135871887207
-0.0873920992016792297 0.387821495532989502 0.136541754007339478
-0.0922999307513237 0.390978753566741943 0.139447689056396484
-0.0950210690498352051 0.423426300287246704 0.145189762115478516
-0.0939328670501708984 0.425625860691070557 0.149976730346679688
-0.0862576737999916077 0.425182074308395386 0.145701825618743896
-0.0928801223635673523 0.425196290016174316 0.155194073915481567
-0.0826518908143043518 0.412150412797927856 0.144970417022705078
-0.0821809768676757812 0.408720403909683228 0.146001338958740234
-0.0853349268436431885 0.408409029245376587 0.149713695049285889
-0.082731299102306366 0.411537051200866699 0.148112863302230835
-0.083135165274143219 0.401475101709365845 0.157054007053375244
-0.0830445066094398499 0.395972371101379395 0.155879586935043335
-0.0809308439493179321 0.39462435245513916 0.159952700138092041
-0.0808753147721290588 0.39227178692817688 0.154699355363845825
-0.0799826532602310181 0.397008985280990601 0.154235467314720154
-0.0801957994699478149 0.393903344869613647 0.153345420956611633
-0.0790121406316757202 0.401089727878570557 0.154822081327438354
-0.0805813223123550415 0.39274144172668457 0.151711598038673401
-0.0816139653325080872 0.390827953815460205 0.152787983417510986
-0.0794767588376998901 0.393769681453704834 0.151202738285064697
-0.0790766850113868713 0.394517362117767334 0.152160018682479858
-0.0779874399304389954 0.396391987800598145 0.151714786887168884
-0.0779308527708053589 0.399910151958465576 0.150109678506851196
-0.0798263177275657654 0.395376414060592651 0.166351646184921265
-0.0778600946068763733 0.390445977449417114 0.142631828784942627
-0.081318974494934082 0.398983418941497803 0.139872133731842041
-0.0895066410303115845 0.384328782558441162 0.144185513257980347
-0.0854604244232177734 0.379025101661682129 0.142692893743515015
-0.0836742296814918518 0.371741533279418945 0.155371099710464478
-0.084972575306892395 0.373326808214187622 0.149587303400039673
-0.0850857719779014587 0.420413583517074585 0.143050491809844971
-0.0846771448850631714 0.414316534996032715 0.140041187405586243
-0.0760308206081390381 0.382553994655609131 0.148619368672370911
-0.0832794830203056335 0.407353222370147705 0.139255151152610779
-0.0907846987247467041 0.394465625286102295 0.141860738396644592
-0.0881156101822853088 0.389835119247436523 0.145386546850204468
-0.0933416634798049927 0.400162696838378906 0.139428570866584778
-0.0826690718531608582 0.386866897344589233 0.154419168829917908
-0.0856783837080001831 0.387235701084136963 0.149942189455032349
-0.0873342081904411316 0.381038963794708252 0.15015043318271637
-0.0848969817161560059 0.379567593336105347 0.155031085014343262
-0.0857900828123092651 0.393571346998214722 0.146761879324913025
-0.0891673564910888672 0.397004693746566772 0.144510135054588318
-0.0823085308074951172 0.395855456590652466 0.146090909838676453
-0.0853640660643577576 0.399524599313735962 0.144259527325630188
-0.0812678039073944092 0.393522441387176514 0.149283468723297119
-0.0832767412066459656 0.391313403844833374 0.149831756949424744
-0.0785294175148010254 0.39762762188911438 0.145974129438400269
-0.0811781585216522217 0.402706801891326904 0.143783405423164368
-0.0788753405213356018 0.394844383001327515 0.14928358793258667
-0.0884530842304229736 0.4029274582862854 0.14422239363193512
-0.0850662738084793091 0.406227648258209229 0.143996745347976685
-0.0886670276522636414 0.409005522727966309 0.146698012948036194
-0.0911718159914016724 0.406574249267578125 0.145310282707214355
-0.0918244719505310059 0.401210248470306396 0.142881214618682861
-0.0938801541924476624 0.405981510877609253 0.142295956611633301
-0.0940184071660041809 0.406627029180526733 0.138510450720787048
-0.0943937972187995911 0.411595553159713745 0.142557859420776367
-0.094634518027305603 0.413298696279525757 0.13937002420425415
-0.0925920009613037109 0.410664260387420654 0.145359009504318237
-0.0909264981746673584 0.411139219999313354 0.147863015532493591
-0.0953639298677444458 0.419379681348800659 0.141680747270584106
-0.0943081676959991455 0.416658520698547363 0.144232660531997681
-0.0937135666608810425 0.420426875352859497 0.146807044744491577
-0.0930667594075202942 0.414484292268753052 0.14655931293964386
-0.0923886299133300781 0.417432874441146851 0.148543059825897217
-0.0918156057596206665 0.413346767425537109 0.148110032081604004
-0.0910278558731079102 0.414842367172241211 0.149761825799942017
-0.0892731323838233948 0.422210186719894409 0.156938686966896057
-0.0880662798881530762 0.419868409633636475 0.157908350229263306
-0.0908653661608695984 0.423040926456451416 0.153993517160415649
-0.0893315151333808899 0.420362561941146851 0.153499305248260498
