ply
format ascii 1.0
element vertex 127
property float x
property float y
property float z
end_header
0.00312325870618224144 -0.351407438516616821 0.0120365507900714874
0.0613126605749130249 -0.444170892238616943 -0.0139646381139755249
-0.0601442195475101471 -0.455315470695495605 -0.00921382009983062744
0.000360565260052680969 -0.241516858339309692 -0.0155810806900262833
0.152904167771339417 -0.812287807464599609 0.0373680293560028076
-0.147845149040222168 -0.803973913192749023 0.0563813671469688416
0.00863350182771682739 -0.112012922763824463 0.0103054754436016083
0.109874755144119263 -1.19789636135101318 -0.0843521207571029663
-0.146615669131278992 -1.1992340087890625 -0.0581203624606132507
-0.00428833439946174622 -0.06961812824010849 0.0515586361289024353
0.186831384897232056 -1.25398588180541992 0.0181352943181991577
-0.216357260942459106 -1.2578510046005249 0.0457132384181022644
-0.0187279321253299713 0.0970561131834983826 0.0725077539682388306
0.0406051613390445709 0.0137732550501823425 0.0727166235446929932
-0.053200162947177887 0.0142494365572929382 0.0634431242942810059
0.00768219679594039917 0.241813063621520996 0.144180327653884888
0.171039938926696777 0.0413604900240898132 0.0766177326440811157
-0.166413158178329468 0.0404834412038326263 0.0699356868863105774
0.261706233024597168 -0.195878177881240845 -0.0075507238507270813
-0.284755021333694458 -0.201304912567138672 0.0143670700490474701
0.314297616481781006 -0.355407834053039551 0.181729793548583984
-0.318844467401504517 -0.366422653198242188 0.198659613728523254
-0.00791428238153457642 0.242238089442253113 0.138084188103675842
0.0250123031437397003 0.267247527837753296 0.219459176063537598
-0.0381253436207771301 0.265341609716415405 0.217424869537353516
0.304295808076858521 -0.395832628011703491 0.277122378349304199
0.296107888221740723 -0.415071666240692139 0.301566362380981445
0.278979748487472534 -0.429914474487304688 0.301900148391723633
0.318269014358520508 -0.415723234415054321 0.273217380046844482
0.309124529361724854 -0.439254224300384521 0.291009694337844849
0.290100663900375366 -0.453777313232421875 0.289963692426681519
0.328821629285812378 -0.436192452907562256 0.231249630451202393
0.319718211889266968 -0.452766984701156616 0.236447826027870178
0.303502351045608521 -0.463103771209716797 0.236175358295440674
0.326309651136398315 -0.428356945514678955 0.251465678215026855
0.314892798662185669 -0.448791414499282837 0.26785653829574585
0.294308602809906006 -0.461012393236160278 0.267376750707626343
0.288941711187362671 -0.364909619092941284 0.225286126136779785
0.269408732652664185 -0.375121623277664185 0.245987832546234131
0.260592758655548096 -0.386041194200515747 0.268165022134780884
-0.297108352184295654 -0.407159954309463501 0.290131568908691406
-0.287373125553131104 -0.426793754100799561 0.313677757978439331
-0.2716178297996521 -0.443010717630386353 0.312072604894638062
-0.313050955533981323 -0.425850152969360352 0.288477241992950439
-0.303596407175064087 -0.449900805950164795 0.305390536785125732
-0.286123514175415039 -0.465970158576965332 0.302163034677505493
-0.330665737390518188 -0.445745974779129028 0.248658746480941772
-0.322340041399002075 -0.462974369525909424 0.252954930067062378
-0.307198762893676758 -0.474630236625671387 0.250777393579483032
-0.324886977672576904 -0.437965333461761475 0.268214702606201172
-0.313118994235992432 -0.45913243293762207 0.283380746841430664
-0.293842047452926636 -0.473031818866729736 0.280466288328170776
-0.286231100559234619 -0.378095716238021851 0.236129850149154663
-0.265044361352920532 -0.389715373516082764 0.254308611154556274
-0.254311501979827881 -0.401132136583328247 0.275362372398376465
-0.00621832301840186119 0.219535320997238159 0.258511513471603394
-0.0391933657228946686 0.262575238943099976 0.230388924479484558
0.0278307162225246429 0.265076756477355957 0.232202187180519104
-0.0743221119046211243 0.251718640327453613 0.132392093539237976
0.0680947750806808472 0.262074947357177734 0.139756634831428528
0.173704624176025391 -1.25990426540374756 0.0989019870758056641
0.228354543447494507 -1.26077604293823242 0.0355302095413208008
0.122445762157440186 -1.23132014274597168 -0.153571635484695435
-0.185895085334777832 -1.26146280765533447 0.120028510689735413
-0.247508406639099121 -1.26443731784820557 0.0553801804780960083
-0.139021798968315125 -1.2490311861038208 -0.130980044603347778
0.244127839803695679 -0.405198812484741211 0.288064718246459961
0.258154511451721191 -0.443905234336853027 0.302083641290664673
0.266456782817840576 -0.467430353164672852 0.287563592195510864
0.270858526229858398 -0.467922329902648926 0.266683191061019897
0.283820211887359619 -0.470541238784790039 0.238115161657333374
-0.233828231692314148 -0.418415337800979614 0.292862296104431152
-0.253049254417419434 -0.459165424108505249 0.310247063636779785
-0.265060722827911377 -0.482065409421920776 0.296791195869445801
-0.271668732166290283 -0.481603085994720459 0.276841133832931519
-0.288295209407806396 -0.483992546796798706 0.250316590070724487
-0.0673270449042320251 0.271722942590713501 0.204179823398590088
-0.0596591420471668243 0.284618854522705078 0.223405316472053528
-0.045674789696931839 0.285905778408050537 0.238044992089271545
-0.0304344408214092255 0.283480167388916016 0.245650529861450195
-0.0170811992138624191 0.279164165258407593 0.246908470988273621
0.00158378807827830315 0.279765903949737549 0.247255474328994751
0.0146675426512956619 0.285027623176574707 0.246734827756881714
0.0302158612757921219 0.288572072982788086 0.240588903427124023
0.0450892411172389984 0.288141876459121704 0.227214932441711426
0.055080711841583252 0.275740295648574829 0.20874139666557312
-0.00723283598199486732 0.263471692800521851 0.24605424702167511
-0.00702601205557584763 0.250509321689605713 0.251649141311645508
-0.00686809001490473747 0.238884866237640381 0.257165402173995972
-0.00660552317276597023 0.227224528789520264 0.261770814657211304
-0.017579495906829834 0.218737944960594177 0.237985119223594666
-0.0117968814447522163 0.21615871787071228 0.241366386413574219
-0.00551702501252293587 0.214089065790176392 0.243074506521224976
0.000714206486009061337 0.216653749346733093 0.24177783727645874
0.0065612071193754673 0.219709962606430054 0.238687038421630859
-0.0514260157942771912 0.263175845146179199 0.219695895910263062
-0.0432020090520381927 0.267075806856155396 0.230261057615280151
-0.0334924310445785522 0.266787827014923096 0.231152787804603577
-0.0247015766799449921 0.261795997619628906 0.227867245674133301
-0.0327103026211261749 0.258615434169769287 0.228449881076812744
-0.0421480759978294373 0.258050769567489624 0.226996302604675293
0.0116072874516248703 0.263106375932693481 0.229168146848678589
0.0196468960493803024 0.26862606406211853 0.233069866895675659
0.0293720681220293045 0.269667506217956543 0.232860207557678223
0.0387302786111831665 0.26633027195930481 0.223005250096321106
0.0291467420756816864 0.260614395141601562 0.229505375027656555
0.0196258910000324249 0.260569840669631958 0.230315923690795898
-0.0277051422744989395 0.194660887122154236 0.2220124751329422
-0.020817488431930542 0.197678402066230774 0.233435302972793579
-0.0110749118030071259 0.199297472834587097 0.239402070641517639
-0.00481442362070083618 0.198645085096359253 0.240137353539466858
0.00148552260361611843 0.199746608734130859 0.239784553647041321
0.0116544347256422043 0.198934987187385559 0.234148547053337097
0.0195382833480834961 0.196179747581481934 0.223500475287437439
0.0124996062368154526 0.190345197916030884 0.229523748159408569
0.00230245967395603657 0.187241703271865845 0.234863117337226868
-0.00435665342956781387 0.186571463942527771 0.235256373882293701
-0.0110119171440601349 0.186813592910766602 0.234557479619979858
-0.0211277864873409271 0.18921266496181488 0.228808090090751648
-0.0270583219826221466 0.19488900899887085 0.221559315919876099
-0.0106213483959436417 0.19442419707775116 0.232764706015586853
-0.00436826702207326889 0.194401904940605164 0.233486786484718323
0.00193318340461701155 0.19489586353302002 0.23319593071937561
0.0192896164953708649 0.196271315217018127 0.223444387316703796
0.00234735943377017975 0.194326654076576233 0.233227118849754333
-0.00453840382397174835 0.194107964634895325 0.233933791518211365
-0.0113084148615598679 0.193991512060165405 0.23289923369884491
