ply
format ascii 1.0
element vertex 729
property float x
property float y
property float z
end_header
-0.428181678056716919 0.213788047432899475 0.0146895088255405426
-0.478976577520370483 0.269749313592910767 -0.0393220596015453339
-0.0160630494356155396 0.216818854212760925 -0.110403560101985931
-0.158988147974014282 0.0453436076641082764 0.039052136242389679
-0.120468564331531525 0.0213092751801013947 0.0908011570572853088
-0.135336950421333313 0.0245787929743528366 0.0737196356058120728
-0.171763047575950623 0.102183990180492401 0.0112491250038146973
-0.175481051206588745 0.113270603120326996 0.00807943381369113922
-0.197813928127288818 0.147799193859100342 -0.000312850694172084332
-0.206217572093009949 0.161911889910697937 -0.00703247822821140289
-0.161474272608757019 0.0824411138892173767 0.0419354699552059174
-0.0777390599250793457 0.454308301210403442 -0.0175833273679018021
-0.0764247849583625793 0.447033196687698364 -0.0208802167326211929
-0.0796734914183616638 0.468327105045318604 -0.016521768644452095
-0.0183614399284124374 -0.124334067106246948 0.168909355998039246
-0.0768299847841262817 0.439357876777648926 -0.0065502021461725235
-0.0748527571558952332 0.430381953716278076 -0.00890922173857688904
-0.0798052474856376648 0.434485435485839844 -0.00714652566239237785
-0.076284945011138916 0.440562248229980469 -0.00462175440043210983
-0.0763622671365737915 0.441785037517547607 -0.00405611004680395126
-0.0800470337271690369 0.470140933990478516 -0.00573553657159209251
-0.0744892135262489319 0.438239842653274536 -0.021764041855931282
-0.0728550329804420471 0.428826332092285156 -0.0206188242882490158
-0.0784850269556045532 0.455502092838287354 -0.000254920509178191423
-0.0550978071987628937 -0.137912914156913757 -0.0807859376072883606
-0.0310328137129545212 -0.139032647013664246 -0.0803554579615592957
-0.0330798104405403137 -0.156010165810585022 -0.0859024375677108765
-0.0586219951510429382 -0.155385583639144897 -0.0843161121010780334
-0.0349823608994483948 -0.173319354653358459 -0.0934284776449203491
-0.150945514440536499 -0.20558205246925354 -0.061810765415430069
-0.167014703154563904 -0.203005239367485046 -0.0376891270279884338
-0.162577018141746521 -0.181718692183494568 -0.0361386127769947052
-0.146978095173835754 -0.18394702672958374 -0.0584754832088947296
-0.169045567512512207 -0.165490284562110901 -0.0112176313996315002
-0.158030688762664795 -0.163990050554275513 -0.0350686907768249512
-0.17349870502948761 -0.182171732187271118 -0.0101868072524666786
-0.178092658519744873 -0.186986491084098816 0.0175943095237016678
-0.173743516206741333 -0.169204145669937134 0.0156870018690824509
-0.175346776843070984 -0.19564354419708252 0.044182267040014267
-0.170875251293182373 -0.176503881812095642 0.0422877371311187744
-0.1671551913022995 -0.205843836069107056 0.0683690160512924194
-0.153010725975036621 -0.216088756918907166 0.0894032344222068787
-0.132492616772651672 -0.248974993824958801 0.10579274594783783
-0.107625454664230347 -0.235342025756835938 0.120260961353778839
-0.132058426737785339 -0.226359263062477112 0.106489323079586029
-0.0601653717458248138 -0.247823759913444519 0.140603035688400269
-0.0828242376446723938 -0.243161723017692566 0.131566762924194336
-0.0212556459009647369 -0.25229218602180481 0.151542022824287415
-0.0399196967482566833 -0.250720977783203125 0.147269710898399353
-0.106903314590454102 0.227746829390525818 0.0506285913288593292
-0.0843784138560295105 0.28681492805480957 -0.0603149794042110443
-0.0908381193876266479 0.28276708722114563 -0.0600573867559432983
-0.100711435079574585 0.286994814872741699 -0.0382212363183498383
-0.113272130489349365 0.233906522393226624 -0.102437399327754974
-0.114134393632411957 0.251492023468017578 -0.0902373343706130981
-0.0925045982003211975 0.24392402172088623 -0.0998903587460517883
-0.09223213791847229 0.227156132459640503 -0.109244115650653839
-0.0742921754717826843 0.280229747295379639 -0.0751726329326629639
-0.0712900534272193909 0.283384144306182861 -0.0752627328038215637
-0.0781629234552383423 0.275446057319641113 -0.0768589600920677185
-0.0458525717258453369 0.261307656764984131 -0.0944259539246559143
-0.0636161714792251587 0.267974317073822021 -0.0885167494416236877
-0.143620923161506653 0.280151337385177612 -0.0387744978070259094
-0.142953395843505859 0.27002638578414917 -0.0614274740219116211
-0.152225062251091003 0.270738393068313599 -0.0574973709881305695
-0.154528185725212097 0.28041231632232666 -0.0349170081317424774
-0.147656723856925964 0.225020185112953186 -0.0978272110223770142
-0.147325679659843445 0.208670854568481445 -0.102915503084659576
-0.159110412001609802 0.212327748537063599 -0.0974081605672836304
-0.157239407300949097 0.22699013352394104 -0.0924337431788444519
-0.18910624086856842 0.279146343469619751 -0.0210285726934671402
-0.184648990631103516 0.273151814937591553 -0.0438029766082763672
-0.197267249226570129 0.27359965443611145 -0.0410012118518352509
-0.202345803380012512 0.278092682361602783 -0.0187902543693780899
-0.154121756553649902 0.241760998964309692 -0.0852943286299705505
-0.0882426723837852478 0.110276706516742706 -0.128283441066741943
-0.108316369354724884 0.118670418858528137 -0.124964334070682526
-0.126177966594696045 0.12735806405544281 -0.118416734039783478
-0.163310274481773376 0.154321238398551941 -0.095165640115737915
-0.154052108526229858 0.146297067403793335 -0.100663088262081146
-0.159210920333862305 0.132741674780845642 -0.0961817279458045959
-0.17328159511089325 0.162308633327484131 -0.0907525494694709778
-0.182797238230705261 0.166949629783630371 -0.0841962024569511414
-0.212546318769454956 0.207120418548583984 0.0456846356391906738
-0.199060171842575073 0.205833852291107178 0.0497457422316074371
-0.198489874601364136 0.234116658568382263 0.0416822135448455811
-0.206403777003288269 0.17165982723236084 -0.073093511164188385
-0.1923675537109375 0.166898414492607117 -0.0745697319507598877
-0.194420114159584045 0.159297540783882141 -0.0708624869585037231
-0.208362206816673279 0.166176930069923401 -0.0696772262454032898
-0.132752269506454468 0.280272334814071655 -0.0413536801934242249
-0.196213856339454651 0.26286238431930542 -0.0574969276785850525
-0.183897614479064941 0.261409074068069458 -0.0604221522808074951
-0.182187363505363464 0.249085485935211182 -0.0715136528015136719
-0.195339813828468323 0.25120207667350769 -0.0681871324777603149
-0.19617345929145813 0.237716928124427795 -0.0761990472674369812
-0.183508768677711487 0.23441702127456665 -0.0801897048950195312
-0.184924528002738953 0.220166921615600586 -0.0857662037014961243
-0.197755768895149231 0.22380867600440979 -0.0816594436764717102
-0.205234795808792114 0.178282022476196289 -0.0770517140626907349
-0.19047817587852478 0.174788028001785278 -0.0786636322736740112
-0.221757978200912476 0.269238054752349854 0.00470799719914793968
-0.167459622025489807 0.279790043830871582 -0.00399346929043531418
-0.168417990207672119 0.266414880752563477 0.0211256090551614761
-0.156555265188217163 0.269578665494918823 0.0172777753323316574
-0.155698075890541077 0.28141447901725769 -0.00837404374033212662
-0.232839107513427734 0.157707482576370239 -0.0295370370149612427
-0.227906167507171631 0.163644582033157349 -0.01398497074842453
-0.235935404896736145 0.153100565075874329 -0.0422770455479621887
-0.201043814420700073 0.145862773060798645 -0.0625571310520172119
-0.235797286033630371 0.152033999562263489 -0.0521359257400035858
-0.224756032228469849 0.189704418182373047 0.0345608852803707123
-0.227841630578041077 0.208873018622398376 0.0386912375688552856
-0.170343399047851562 0.24341505765914917 0.0388856083154678345
-0.1579599529504776 0.248242408037185669 0.0361269488930702209
-0.217325225472450256 0.275855273008346558 -0.0185575205832719803
-0.212707310914993286 0.272099405527114868 -0.0400499030947685242
-0.224757388234138489 0.177637726068496704 -0.0750124305486679077
-0.227262228727340698 0.172680243849754333 -0.072416350245475769
-0.243699029088020325 0.180180922150611877 -0.0762899667024612427
-0.190817803144454956 0.138230547308921814 -0.0703505277633666992
-0.195957973599433899 0.152913227677345276 -0.0670905634760856628
-0.165251970291137695 0.279917985200881958 -0.0303351469337940216
-0.210282742977142334 0.26286470890045166 -0.056051008403301239
-0.210554048418998718 0.250653684139251709 -0.0671632140874862671
-0.172935962677001953 0.231071487069129944 -0.085308074951171875
-0.171245664358139038 0.246117651462554932 -0.0767386108636856079
-0.161822408437728882 0.243873149156570435 -0.0817890539765357971
-0.164133772253990173 0.22840668261051178 -0.0890956148505210876
-0.211264491081237793 0.227990195155143738 -0.0785910934209823608
-0.214741736650466919 0.215515747666358948 -0.081043928861618042
-0.167123064398765564 0.21398887038230896 -0.0926844179630279541
-0.17459598183631897 0.216490522027015686 -0.0899215489625930786
-0.222892984747886658 0.184485554695129395 -0.077814348042011261
-0.146935194730758667 0.251721799373626709 0.0326618924736976624
-0.148364663124084473 0.228289246559143066 0.0468442067503929138
-0.13646833598613739 0.229213044047355652 0.0464988425374031067
-0.172626987099647522 0.216759666800498962 0.0506494380533695221
-0.15977884829044342 0.223601832985877991 0.0487863123416900635
-0.18624664843082428 0.20880715548992157 0.0516712404787540436
-0.122991137206554413 0.228392377495765686 0.0487248264253139496
-0.443755984306335449 0.204572409391403198 -0.0738606005907058716
-0.247574344277381897 0.176410108804702759 -0.0743594914674758911
-0.262107163667678833 0.182747408747673035 -0.0776266828179359436
-0.256958574056625366 0.186935305595397949 -0.0791833028197288513
-0.314820945262908936 0.218574315309524536 -0.0800561606884002686
-0.00121349992696195841 0.373049348592758179 0.115812450647354126
-0.000603798311203718185 0.378807187080383301 0.118886537849903107
0.000635904201772063971 0.400238543748855591 0.120873890817165375
0.000725532823707908392 0.404157876968383789 0.119965091347694397
-0.44041895866394043 0.242674052715301514 -0.0668016746640205383
-0.44852110743522644 0.244475021958351135 -0.066051967442035675
-0.497048795223236084 0.251174837350845337 -0.0679243132472038269
-0.519556820392608643 0.26451343297958374 -0.0521256811916828156
-0.498142778873443604 0.263016194105148315 -0.0528503470122814178
-0.503367900848388672 0.267513662576675415 -0.00359319988638162613
-0.501841962337493896 0.252278536558151245 0.00700935069471597672
-0.497208625078201294 0.200989425182342529 -0.00199710647575557232
-0.497591078281402588 0.198513418436050415 -0.0737922787666320801
-0.647561311721801758 0.240265339612960815 -0.0166951827704906464
-0.648408055305480957 0.247533440589904785 -0.0274757146835327148
-0.669164299964904785 0.243619784712791443 -0.0242992546409368515
-0.667762160301208496 0.235345825552940369 -0.0146890226751565933
-0.687570452690124512 0.231738477945327759 -0.0122379418462514877
-0.685769498348236084 0.220995768904685974 -0.00917128939181566238
-0.666399657726287842 0.224720463156700134 -0.0100513128563761711
-0.68339693546295166 0.210761979222297668 -0.0122361313551664352
-0.664476990699768066 0.213712155818939209 -0.0114136729389429092
-0.681551337242126465 0.202519908547401428 -0.0192819386720657349
-0.681398272514343262 0.197395145893096924 -0.0278975274413824081
-0.662821054458618164 0.198443993926048279 -0.0253704749047756195
-0.662864029407501221 0.20478096604347229 -0.0171910468488931656
-0.643276751041412354 0.193911969661712646 -0.0322640314698219299
-0.663193285465240479 0.194332540035247803 -0.0352775305509567261
-0.663605272769927979 0.192873269319534302 -0.0463288798928260803
-0.643493354320526123 0.190906152129173279 -0.0441819056868553162
-0.683671116828918457 0.203966677188873291 -0.0658564567565917969
-0.684264957904815674 0.212783545255661011 -0.0699385851621627808
-0.664759039878845215 0.211152940988540649 -0.072521403431892395
-0.664208769798278809 0.201312422752380371 -0.0673347190022468567
-0.645387947559356689 0.23202216625213623 -0.0712092295289039612
-0.644240736961364746 0.220654651522636414 -0.0751547291874885559
-0.665265858173370361 0.222439244389533997 -0.072542823851108551
-0.6663818359375 0.233243346214294434 -0.0687836557626724243
-0.685994148254394531 0.234852820634841919 -0.0670733004808425903
-0.687339603900909424 0.24247722327709198 -0.0582032427191734314
-0.667684972286224365 0.241404548287391663 -0.0609812885522842407
-0.607553422451019287 0.249182030558586121 -0.0206304341554641724
-0.627608418464660645 0.244867563247680664 -0.0190713927149772644
-0.626674532890319824 0.233847305178642273 -0.0116525432094931602
-0.643691182136535645 0.20711025595664978 -0.0143544813618063927
-0.624065577983856201 0.209928736090660095 -0.0117058716714382172
-0.625320315361022949 0.221545949578285217 -0.0091927768662571907
-0.64494854211807251 0.217474311590194702 -0.0100670866668224335
-0.603357672691345215 0.187086805701255798 -0.038657020777463913
-0.62326127290725708 0.193393543362617493 -0.0290336105972528458
-0.623491764068603516 0.189039215445518494 -0.0416655987501144409
-0.643226861953735352 0.199387922883033752 -0.0221157446503639221
-0.623352468013763428 0.200597181916236877 -0.0188124720007181168
-0.643584191799163818 0.192458704113960266 -0.0567919649183750153
-0.663767158985137939 0.195201769471168518 -0.057707909494638443
-0.648623228073120117 0.249615281820297241 -0.0403846763074398041
-0.648000061511993408 0.247580289840698242 -0.053125087171792984
-0.669151186943054199 0.245766177773475647 -0.0494669899344444275
-0.669547557830810547 0.246679291129112244 -0.0368954166769981384
-0.623474359512329102 0.189999967813491821 -0.055344652384519577
-0.626707375049591064 0.249794185161590576 -0.0566937178373336792
-0.627625584602355957 0.252928197383880615 -0.0437882430851459503
-0.646670877933502197 0.241298764944076538 -0.0639536753296852112
-0.62533801794052124 0.241904154419898987 -0.067211247980594635
-0.689233660697937012 0.244428694248199463 -0.0337369740009307861
-0.689265310764312744 0.240195691585540771 -0.0212976559996604919
-0.628030240535736084 0.251639723777770996 -0.0302579458802938461
-0.643397688865661621 0.198683097958564758 -0.0678078532218933105
-0.643639683723449707 0.208968847990036011 -0.0743896737694740295
-0.622859716415405273 0.206709444522857666 -0.0754680037498474121
-0.623135745525360107 0.196246117353439331 -0.0675428137183189392
-0.602354049682617188 0.230374798178672791 -0.0774201676249504089
-0.62312769889831543 0.218922510743141174 -0.0775922015309333801
-0.624019503593444824 0.231079414486885071 -0.0742368847131729126
-0.684784650802612305 0.223666653037071228 -0.0703034475445747375
-0.60353928804397583 0.242663592100143433 -0.0705603212118148804
-0.773655891418457031 0.198236331343650818 -0.0254020337015390396
-0.764150321483612061 0.194222569465637207 -0.0238996241241693497
-0.76998603343963623 0.192450299859046936 -0.0139065645635128021
-0.778912365436553955 0.19718344509601593 -0.0158693846315145493
-0.749038577079772949 0.182875707745552063 -0.00547276902943849564
-0.740236759185791016 0.18715234100818634 0.00293581536971032619
-0.751121044158935547 0.188333243131637573 0.0110002309083938599
-0.758414685726165771 0.184630110859870911 0.00380480429157614708
-0.7829475998878479 0.198878169059753418 -0.00713786203414201736
-0.774476528167724609 0.193385735154151917 -0.00540541950613260269
-0.781998395919799805 0.203453719615936279 -0.0011197294807061553
-0.790361940860748291 0.211089015007019043 -0.0032386749517172575
-0.790646791458129883 0.20391373336315155 -0.00752314040437340736
-0.798220515251159668 0.214830115437507629 -0.00466421293094754219
-0.784266948699951172 0.222504258155822754 -0.00526675209403038025
-0.796239972114562988 0.224212542176246643 -0.0087901214137673378
-0.777670502662658691 0.233872607350349426 -0.030821649357676506
-0.774795353412628174 0.234150394797325134 -0.0421160124242305756
-0.789692878723144531 0.233188137412071228 -0.042742803692817688
-0.792217910289764404 0.231923654675483704 -0.0308877658098936081
-0.780799508094787598 0.227852985262870789 -0.0625435560941696167
-0.786408185958862305 0.230852365493774414 -0.0528154410421848297
-0.771312296390533447 0.232610687613487244 -0.0513178147375583649
-0.766898512840270996 0.229966580867767334 -0.0602530501782894135
-0.766627967357635498 0.200729846954345703 -0.0402952656149864197
-0.756065249443054199 0.198336556553840637 -0.0404551587998867035
-0.758926153182983398 0.197174340486526489 -0.0336340069770812988
-0.768836617469787598 0.200132682919502258 -0.0341943986713886261
-0.779154121875762939 0.206435546278953552 0.00902415718883275986
-0.774719178676605225 0.214737251400947571 0.00305554782971739769
-0.780853688716888428 0.211211457848548889 0.00114035746082663536
-0.781088054180145264 0.202815622091293335 0.00699269399046897888
-0.729445159435272217 0.189911887049674988 -0.0535651259124279022
-0.716673433780670166 0.192303881049156189 -0.0516306161880493164
-0.717216908931732178 0.192731097340583801 -0.0421899706125259399
-0.728826761245727539 0.190957725048065186 -0.045239914208650589
-0.722903013229370117 0.189140632748603821 -0.0127673819661140442
-0.716533243656158447 0.192853838205337524 -0.0206617843359708786
-0.710603654384613037 0.202738091349601746 -0.00979916844516992569
-0.718793570995330811 0.201264292001724243 -0.00413326825946569443
-0.73063582181930542 0.187212958931922913 -0.00515714660286903381
-0.726665616035461426 0.199660271406173706 0.00167465617414563894
-0.736994266510009766 0.19840654730796814 0.00781829003244638443
-0.748729050159454346 0.197365224361419678 0.0151721946895122528
-0.715468823909759521 0.195711478590965271 -0.0627552270889282227
-0.724339008331298828 0.193275421857833862 -0.066340230405330658
-0.849396765232086182 0.207927554845809937 -0.0126032894477248192
-0.85007864236831665 0.205963745713233948 -0.0182967390865087509
-0.844205141067504883 0.206230759620666504 -0.0173028334975242615
-0.843504786491394043 0.208242997527122498 -0.0115684196352958679
-0.723890244960784912 0.213108837604522705 -0.0748057365417480469
-0.726009070873260498 0.22316288948059082 -0.0716116353869438171
-0.717998802661895752 0.222700491547584534 -0.0712523534893989563
-0.716278433799743652 0.212179780006408691 -0.0724920779466629028
-0.732894659042358398 0.214043468236923218 -0.077940724790096283
-0.735432744026184082 0.224100366234779358 -0.0723523721098899841
-0.851830184459686279 0.221281498670578003 -0.0120817320421338081
-0.850534498691558838 0.216871932148933411 -0.00910634920001029968
-0.844566762447357178 0.218061745166778564 -0.00893903430551290512
-0.845614492893218994 0.222497358918190002 -0.0122544616460800171
-0.787793576717376709 0.200185582041740417 -0.0159232690930366516
-0.78308558464050293 0.20065152645111084 -0.0251165349036455154
-0.806363582611083984 0.202398210763931274 -0.0191502925008535385
-0.794375896453857422 0.201779559254646301 -0.02420787513256073
-0.796608209609985352 0.202191725373268127 -0.0141095938161015511
-0.80519568920135498 0.20397639274597168 -0.0122194178402423859
-0.786623656749725342 0.202363774180412292 -0.0446023829281330109
-0.77571415901184082 0.201999589800834656 -0.0445954091846942902
-0.779899537563323975 0.202281385660171509 -0.03697923943400383
-0.79105687141418457 0.202481299638748169 -0.0371751859784126282
-0.772551119327545166 0.198192015290260315 -0.0570844225585460663
-0.783046185970306396 0.199246704578399658 -0.0575947389006614685
-0.781558752059936523 0.196916043758392334 -0.0643925368785858154
-0.772322893142700195 0.196013927459716797 -0.0633087307214736938
-0.804491162300109863 0.202813267707824707 -0.05258212611079216
-0.814198732376098633 0.205597966909408569 -0.0535966642200946808
-0.812491357326507568 0.205721452832221985 -0.058979816734790802
-0.803192734718322754 0.202073052525520325 -0.0583450272679328918
-0.710796177387237549 0.223129928112030029 -0.0709811672568321228
-0.708984375 0.212453886866569519 -0.0709875226020812988
-0.771223366260528564 0.219403520226478577 -0.0802017822861671448
-0.766426682472229004 0.211386889219284058 -0.0862034782767295837
-0.776578128337860107 0.209539979696273804 -0.089450933039188385
-0.781151711940765381 0.217879533767700195 -0.0834740698337554932
-0.728768050670623779 0.231211274862289429 -0.064278431236743927
-0.720576941967010498 0.231897234916687012 -0.0645878240466117859
-0.853047609329223633 0.223446786403656006 -0.0176572836935520172
-0.846798181533813477 0.224804148077964783 -0.0179079379886388779
-0.738516509532928467 0.210432693362236023 0.00562362838536500931
-0.7506600022315979 0.207545369863510132 0.0134604563936591148
-0.728129267692565918 0.212585568428039551 -0.000554327270947396755
-0.720175981521606445 0.214277788996696472 -0.00456854142248630524
-0.711833775043487549 0.216049298644065857 -0.0066335718147456646
-0.799775063991546631 0.202338665723800659 -0.0293864645063877106
-0.776978194713592529 0.201257467269897461 -0.0326887853443622589
-0.76477515697479248 0.200171828269958496 -0.0449721105396747589
-0.760010480880737305 0.191888779401779175 -0.0751659348607063293
-0.751615762710571289 0.19176068902015686 -0.0750117525458335876
-0.755580365657806396 0.191361367702484131 -0.0649318397045135498
-0.762768983840942383 0.192650124430656433 -0.0675064250826835632
-0.765024125576019287 0.201325222849845886 -0.0869927257299423218
-0.767302215099334717 0.195114374160766602 -0.0823156163096427917
-0.776600539684295654 0.195274993777275085 -0.0838592574000358582
-0.775043666362762451 0.200398817658424377 -0.0892650485038757324
-0.776824116706848145 0.209056124091148376 0.0131832454353570938
-0.768239378929138184 0.215001106262207031 0.00700594019144773483
-0.722963631153106689 0.202203124761581421 -0.0736379846930503845
-0.71534264087677002 0.202653601765632629 -0.0699369385838508606
-0.707852661609649658 0.204121023416519165 -0.0671865791082382202
-0.742228269577026367 0.194070488214492798 -0.0434298813343048096
-0.728708207607269287 0.190989777445793152 -0.0397085510194301605
-0.730022251605987549 0.189234301447868347 -0.0329031310975551605
-0.743945300579071045 0.193689197301864624 -0.0384269058704376221
-0.753276646137237549 0.187591552734375 -0.0214101281017065048
-0.74040377140045166 0.183578848838806152 -0.0156202781945466995
-0.760489940643310547 0.186231300234794617 -0.0111333988606929779
-0.716797173023223877 0.192609652876853943 -0.0333459042012691498
-0.707358419895172119 0.195192739367485046 -0.0405320115387439728
-0.707134127616882324 0.195503756403923035 -0.0306012239307165146
-0.707357168197631836 0.195883408188819885 -0.0508677959442138672
-0.707474052906036377 0.198624551296234131 -0.0605389028787612915
-0.696809172630310059 0.195794939994812012 -0.0394044145941734314
-0.696264207363128662 0.196833878755569458 -0.0296123567968606949
-0.697232544422149658 0.196967795491218567 -0.0499892011284828186
-0.697784423828125 0.200144141912460327 -0.059178519994020462
-0.700449228286743164 0.235719412565231323 -0.0657311826944351196
-0.699163913726806641 0.224263370037078857 -0.0700639262795448303
-0.711749792098999023 0.233691304922103882 -0.0651417002081871033
-0.699113965034484863 0.207479968667030334 -0.0115575054660439491
-0.707520604133605957 0.197761371731758118 -0.0201559830456972122
-0.696938872337341309 0.200402185320854187 -0.0204251259565353394
-0.701429188251495361 0.218322485685348511 -0.00803790893405675888
-0.765068590641021729 0.186469599604606628 0.0100253382697701454
-0.771817982196807861 0.187039121985435486 0.0149413999170064926
-0.776864707469940186 0.189265206456184387 0.00942421983927488327
-0.771415174007415771 0.189527526497840881 0.00452721305191516876
-0.806222438812255859 0.216938033699989319 -0.00649431999772787094
-0.805688977241516113 0.209261417388916016 -0.00700372969731688499
-0.797982275485992432 0.207086086273193359 -0.00698304036632180214
-0.738606810569763184 0.189688771963119507 -0.0597197301685810089
-0.733892202377319336 0.192221403121948242 -0.0708521902561187744
-0.809150934219360352 0.203121274709701538 -0.0250473134219646454
-0.837997853755950928 0.22318972647190094 -0.0121645396575331688
-0.837114930152893066 0.218410655856132507 -0.00863257236778736115
-0.824006319046020508 0.218111425638198853 -0.00814987160265445709
-0.825369775295257568 0.223908990621566772 -0.0119538204744458199
-0.81893080472946167 0.207742989063262939 -0.0290300864726305008
-0.816362202167510986 0.204848974943161011 -0.0234187804162502289
-0.824964702129364014 0.205254137516021729 -0.023077845573425293
-0.82738882303237915 0.209373950958251953 -0.0280634518712759018
-0.808667838573455811 0.203033000230789185 -0.0654627904295921326
-0.801014959812164307 0.200295433402061462 -0.0651621595025062561
-0.806663393974304199 0.226293176412582397 -0.0317472107708454132
-0.805575668811798096 0.229090183973312378 -0.0197271239012479782
-0.793795943260192871 0.230988189578056335 -0.0185033474117517471
-0.784443557262420654 0.201071694493293762 -0.0514436513185501099
-0.794657707214355469 0.201473981142044067 -0.0520101599395275116
-0.793420255184173584 0.200287729501724243 -0.058018270879983902
-0.803466141223907471 0.203085780143737793 -0.0320631563663482666
-0.810360729694366455 0.204340830445289612 -0.0301310885697603226
-0.807675480842590332 0.204242169857025146 -0.0362336672842502594
-0.79944145679473877 0.202866837382316589 -0.0372201092541217804
-0.75475621223449707 0.213424354791641235 -0.0833088234066963196
-0.753190696239471436 0.200202599167823792 -0.0844587013125419617
-0.849576234817504883 0.212117910385131836 -0.00942889321595430374
-0.843760311603546143 0.212851613759994507 -0.00864398665726184845
-0.698479771614074707 0.213261187076568604 -0.0693995505571365356
-0.69820559024810791 0.205245137214660645 -0.0657165497541427612
-0.77357184886932373 0.200488254427909851 -0.0506819896399974823
-0.780158638954162598 0.231009215116500854 -0.0181949026882648468
-0.763060390949249268 0.198597878217697144 -0.0499749183654785156
-0.798931241035461426 0.218544661998748779 -0.0729795545339584351
-0.798809170722961426 0.21155296266078949 -0.0768480822443962097
-0.806405067443847656 0.211702257394790649 -0.0750579312443733215
-0.806989073753356934 0.218495070934295654 -0.0738385915756225586
-0.839286684989929199 0.211289361119270325 -0.0277599748224020004
-0.837795913219451904 0.20685875415802002 -0.0228688064962625504
-0.84548342227935791 0.207815557718276978 -0.0235082171857357025
-0.846699297428131104 0.212218359112739563 -0.0278545133769512177
-0.813928484916687012 0.204136371612548828 -0.017727559432387352
-0.812651932239532471 0.20574052631855011 -0.011725209653377533
-0.822252988815307617 0.206692561507225037 -0.0114626456052064896
-0.823140442371368408 0.204371467232704163 -0.0171515252441167831
-0.813288569450378418 0.211038321256637573 -0.0079744383692741394
-0.822871744632720947 0.211956501007080078 -0.00811057537794113159
-0.840456247329711914 0.218124747276306152 -0.0291818529367446899
-0.840139150619506836 0.224027007818222046 -0.0252080857753753662
-0.827608823776245117 0.224145174026489258 -0.0259448215365409851
-0.828968703746795654 0.216974899172782898 -0.0294253658503293991
-0.753446698188781738 0.231963858008384705 -0.0582332126796245575
-0.750056743621826172 0.228574275970458984 -0.0666650682687759399
-0.763143837451934814 0.226336270570755005 -0.0693666115403175354
-0.776172518730163574 0.224004000425338745 -0.0721887499094009399
-0.788466036319732666 0.219709977507591248 -0.0741409510374069214
-0.793594658374786377 0.225953564047813416 -0.0645482912659645081
-0.759260416030883789 0.22189880907535553 -0.0767366364598274231
-0.817333817481994629 0.21733604371547699 -0.0344545915722846985
-0.817085981369018555 0.222723230719566345 -0.0281815547496080399
-0.815916955471038818 0.223240867257118225 -0.0359666347503662109
-0.761466681957244873 0.195711329579353333 -0.0573946051299571991
-0.836317002773284912 0.212821424007415771 -0.00816340278834104538
-0.725646317005157471 0.233704924583435059 -0.0181792974472045898
-0.726259768009185791 0.238965809345245361 -0.0304003190249204636
-0.737167418003082275 0.237697988748550415 -0.0314696095883846283
-0.735067963600158691 0.231857448816299438 -0.0172330271452665329
-0.836396574974060059 0.205603420734405518 -0.016785329207777977
-0.836032390594482422 0.20754927396774292 -0.011147606186568737
-0.800250709056854248 0.200198158621788025 -0.0718756541609764099
-0.807045161724090576 0.203093290328979492 -0.0710964873433113098
-0.807153224945068359 0.205268144607543945 -0.0752395913004875183
-0.801568031311035156 0.203297331929206848 -0.0770551562309265137
-0.746847152709960938 0.22397257387638092 -0.0739951431751251221
-0.784873723983764648 0.207873925566673279 -0.0916948020458221436
-0.788083970546722412 0.216814547777175903 -0.0866004005074501038
-0.738198995590209961 0.23039013147354126 -0.0649616867303848267
-0.741264700889587402 0.234153136610984802 -0.0561466515064239502
-0.731476247310638428 0.236142188310623169 -0.0545076504349708557
-0.802219390869140625 0.226310625672340393 -0.0536886304616928101
-0.757074058055877686 0.234150946140289307 -0.0499277934432029724
-0.744340658187866211 0.235884159803390503 -0.0478777512907981873
-0.733778178691864014 0.237797394394874573 -0.0447398871183395386
-0.725022435188293457 0.239528477191925049 -0.0432123541831970215
-0.723302185535430908 0.237793311476707458 -0.0538777746260166168
-0.83920055627822876 0.225656434893608093 -0.0182366445660591125
-0.847659468650817871 0.223425209522247314 -0.0246094707399606705
-0.713606953620910645 0.239751815795898438 -0.0539186038076877594
-0.70238572359085083 0.241953372955322266 -0.055352337658405304
-0.703471779823303223 0.243424519896507263 -0.0437412671744823456
-0.715019524097442627 0.241451606154441833 -0.0428174622356891632
-0.747509419918060303 0.236493229866027832 -0.0386762022972106934
-0.749530255794525146 0.235883370041847229 -0.0290222484618425369
-0.760447502136230469 0.235218644142150879 -0.04109230637550354
-0.76341170072555542 0.23474709689617157 -0.0305750500410795212
-0.803417026996612549 0.230643481016159058 -0.0431080646812915802
-0.862666189670562744 0.217302843928337097 -0.0274339746683835983
-0.854074239730834961 0.217864751815795898 -0.027913382276892662
-0.853203892707824707 0.21236930787563324 -0.0282982364296913147
-0.862009584903717041 0.212606623768806458 -0.0283311959356069565
-0.847607672214508057 0.2182464599609375 -0.0284673869609832764
-0.853966295719146729 0.22235870361328125 -0.024102451279759407
-0.76583784818649292 0.231426462531089783 -0.0175347570329904556
-0.815743386745452881 0.207181885838508606 -0.0356232002377510071
-0.749439537525177002 0.229623332619667053 -0.0138046760112047195
-0.770909786224365234 0.225521132349967957 -0.00461273221299052238
-0.759636163711547852 0.223435848951339722 -0.000799444911535829306
-0.73131096363067627 0.223937153816223145 -0.0060128713957965374
-0.741569817066192627 0.221050143241882324 -0.000897039019037038088
-0.714406251907348633 0.227157175540924072 -0.0102806007489562035
-0.722825825214385986 0.225547119975090027 -0.00885343458503484726
-0.703522980213165283 0.229144051671028137 -0.0109433736652135849
-0.753582894802093506 0.216753140091896057 0.00728329131379723549
-0.857474386692047119 0.206772193312644958 -0.0138960285112261772
-0.858059942722320557 0.205432802438735962 -0.0198501851409673691
-0.716493308544158936 0.235419481992721558 -0.0187027957290410995
-0.705141067504882812 0.237420022487640381 -0.0194504279643297195
-0.766966402530670166 0.187558025121688843 -0.00215363875031471252
-0.751226961612701416 0.193734467029571533 -0.0546274110674858093
-0.75281226634979248 0.196359589695930481 -0.0490362942218780518
-0.74335247278213501 0.191795468330383301 -0.0738113448023796082
-0.748006880283355713 0.190261483192443848 -0.062616981565952301
-0.704867303371429443 0.242563411593437195 -0.0312903933227062225
-0.68185877799987793 0.19482836127281189 -0.0377218276262283325
-0.682184219360351562 0.195368573069572449 -0.0483219213783740997
-0.688606083393096924 0.244911700487136841 -0.0462544001638889313
-0.857892096042633057 0.2106342613697052 -0.0103301666676998138
-0.817483484745025635 0.212025746703147888 -0.0558333359658718109
-0.816120028495788574 0.212954804301261902 -0.0580797046422958374
-0.759488582611083984 0.18899187445640564 0.0166897475719451904
-0.768256843090057373 0.189474374055862427 0.0204525161534547806
-0.770110368728637695 0.202165991067886353 0.023012140765786171
-0.768122076988220215 0.195085808634757996 0.0234077200293540955
-0.758248031139373779 0.196239382028579712 0.0205797608941793442
-0.760304629802703857 0.204956993460655212 0.019357169046998024
-0.741556346416473389 0.193194195628166199 -0.0475343801081180573
-0.741075277328491211 0.191552937030792236 -0.0528169795870780945
-0.743364274501800537 0.214403718709945679 -0.0807270929217338562
-0.74194800853729248 0.201789885759353638 -0.0818682387471199036
-0.814139962196350098 0.217848464846611023 -0.00784546975046396255
-0.806098341941833496 0.224450394511222839 -0.011030176654458046
-0.81489640474319458 0.224038004875183105 -0.0122240707278251648
-0.826236546039581299 0.2264852374792099 -0.0186776425689458847
-0.818890154361724854 0.212762072682380676 -0.0339633002877235413
-0.821041464805603027 0.215063855051994324 -0.0303077325224876404
-0.73409801721572876 0.18629339337348938 -0.0249866843223571777
-0.747604906558990479 0.191186249256134033 -0.0310552734881639481
-0.77666175365447998 0.195214658975601196 0.00101606070529669523
-0.780187308788299561 0.196415796875953674 0.00570734031498432159
-0.79616248607635498 0.202371388673782349 -0.0446676015853881836
-0.814740419387817383 0.225412413477897644 -0.051615498960018158
-0.814355313777923584 0.22866290807723999 -0.0433308817446231842
-0.805149316787719727 0.20344136655330658 -0.0445405803620815277
-0.860490858554840088 0.219506874680519104 -0.0124611472710967064
-0.859160840511322021 0.215040832757949829 -0.00968369375914335251
-0.815532565116882324 0.227216958999633789 -0.0196746401488780975
-0.791531920433044434 0.198283851146697998 -0.0650353133678436279
-0.810007750988006592 0.221859782934188843 -0.058296550065279007
-0.816692054271697998 0.219436556100845337 -0.0550624728202819824
-0.78232187032699585 0.200337424874305725 -0.0900370776653289795
-0.716637551784515381 0.240476727485656738 -0.0304133035242557526
-0.851535201072692871 0.207486703991889954 -0.0246764644980430603
-0.85974574089050293 0.207302138209342957 -0.0258564166724681854
-0.862248897552490234 0.220738589763641357 -0.0239026434719562531
-0.861333906650543213 0.22179846465587616 -0.0179608166217803955
-0.732042253017425537 0.202111989259719849 -0.0781792178750038147
-0.754289746284484863 0.197883933782577515 -0.0447523742914199829
-0.682672977447509766 0.198527798056602478 -0.0582695081830024719
-0.763555705547332764 0.212260842323303223 0.0140195852145552635
-0.773463726043701172 0.207925766706466675 0.0190171059221029282
-0.81341087818145752 0.205164432525634766 -0.0447700321674346924
-0.793313741683959961 0.215869247913360596 -0.0800467580556869507
-0.802691996097564697 0.2247123122215271 -0.0664285644888877869
-0.809837639331817627 0.224246099591255188 -0.0681611150503158569
-0.814201414585113525 0.222885265946388245 -0.0613251477479934692
-0.817397892475128174 0.21804480254650116 -0.0594122074544429779
-0.868927240371704102 0.219905301928520203 -0.0240743663161993027
-0.868292033672332764 0.220895737409591675 -0.0182171426713466644
-0.867795884609222412 0.218670755624771118 -0.0127410711720585823
-0.866018116474151611 0.214185044169425964 -0.0103032691404223442
-0.864072799682617188 0.210005506873130798 -0.0112373996526002884
-0.869203031063079834 0.216736599802970886 -0.0273637734353542328
-0.868161678314208984 0.21226482093334198 -0.0281902030110359192
-0.865660786628723145 0.207307010889053345 -0.0258908625692129135
-0.87472379207611084 0.215810447931289673 -0.0276065617799758911
-0.875728189945220947 0.21889011561870575 -0.024251837283372879
-0.880726814270019531 0.215434163808822632 -0.0125923259183764458
-0.875278174877166748 0.217842280864715576 -0.0131959607824683189
-0.878583610057830811 0.218176722526550293 -0.0155976256355643272
-0.882176697254180908 0.21731896698474884 -0.0152871310710906982
-0.886743545532226562 0.216431468725204468 -0.0157944578677415848
-0.885664463043212891 0.213866785168647766 -0.0136255854740738869
-0.877995669841766357 0.219267621636390686 -0.0188000388443470001
-0.882482051849365234 0.218682810664176941 -0.0193220563232898712
-0.88213646411895752 0.217928007245063782 -0.0234412252902984619
-0.886919319629669189 0.217334255576133728 -0.0239043869078159332
-0.887303829193115234 0.218076005578041077 -0.0199090894311666489
-0.878556668758392334 0.218738973140716553 -0.0222765170037746429
-0.874245107173919678 0.220067799091339111 -0.0184564366936683655
-0.889855623245239258 0.213309422135353088 -0.0159945171326398849
-0.889726758003234863 0.215864643454551697 -0.0167620833963155746
-0.890966832637786865 0.2169046550989151 -0.0201891530305147171
-0.891986668109893799 0.213994339108467102 -0.0204956643283367157
-0.872293233871459961 0.21351352334022522 -0.0108642540872097015
-0.878933489322662354 0.212103143334388733 -0.0119344964623451233
-0.884485721588134766 0.210771143436431885 -0.0137767987325787544
-0.888816475868225098 0.210291206836700439 -0.0165593530982732773
-0.87792670726776123 0.208601906895637512 -0.0134500199928879738
-0.883659601211547852 0.20814049243927002 -0.0157098527997732162
-0.887303411960601807 0.208060756325721741 -0.0182314477860927582
-0.877607047557830811 0.205975472927093506 -0.0168982911854982376
-0.883481204509735107 0.206414610147476196 -0.0185183752328157425
-0.869090557098388672 0.20629708468914032 -0.0154129248112440109
-0.87017136812210083 0.209486469626426697 -0.0118849268183112144
-0.886230587959289551 0.207071885466575623 -0.0196486692875623703
-0.891105413436889648 0.210941523313522339 -0.0211486741900444031
-0.881160855293273926 0.216771736741065979 -0.0262285154312849045
-0.886214196681976318 0.215658888220787048 -0.0264609809964895248
-0.88054656982421875 0.214393854141235352 -0.0280321519821882248
-0.885767877101898193 0.213133633136749268 -0.0277916416525840759
-0.890430688858032227 0.214848995208740234 -0.0251219626516103745
-0.890006899833679199 0.216946437954902649 -0.0237189587205648422
-0.863257706165313721 0.206431001424789429 -0.0148395169526338577
-0.86385953426361084 0.205572515726089478 -0.0207361560314893723
-0.869707763195037842 0.205225631594657898 -0.0211342107504606247
-0.878030955791473389 0.204786911606788635 -0.0221402700990438461
-0.871070683002471924 0.207242175936698914 -0.0260445196181535721
-0.873534560203552246 0.211652740836143494 -0.0283155255019664764
-0.879604160785675049 0.211100950837135315 -0.0283125806599855423
-0.878435313701629639 0.207246407866477966 -0.0266761928796768188
-0.884822487831115723 0.210228905081748962 -0.02763325534760952
-0.884040713310241699 0.207582965493202209 -0.02598530612885952
-0.883720159530639648 0.206147283315658569 -0.0223837792873382568
-0.888161420822143555 0.209505453705787659 -0.0256247501820325851
-0.88975071907043457 0.212059229612350464 -0.0257454495877027512
-0.888860344886779785 0.208814531564712524 -0.0218607056885957718
-0.88666844367980957 0.208047330379486084 -0.0248379148542881012
-0.886666476726531982 0.207448765635490417 -0.0222068056464195251
-0.85612410306930542 0.209409639239311218 -0.0449306443333625793
-0.85573190450668335 0.20803406834602356 -0.050615362823009491
-0.84821397066116333 0.208778604865074158 -0.0489281080663204193
-0.848722696304321289 0.210071101784706116 -0.04340406134724617
-0.856741249561309814 0.222771286964416504 -0.0419345572590827942
-0.856792032718658447 0.216995388269424438 -0.039619937539100647
-0.84982377290725708 0.218400195240974426 -0.0383967980742454529
-0.84971320629119873 0.224090933799743652 -0.0410595200955867767
-0.855983436107635498 0.225292712450027466 -0.0483127273619174957
-0.848993062973022461 0.226620957255363464 -0.0477570481598377228
-0.841370642185211182 0.224814355373382568 -0.0396709702908992767
-0.841509222984313965 0.218894332647323608 -0.0371725112199783325
-0.827079176902770996 0.217810094356536865 -0.0361803509294986725
-0.826908230781555176 0.224067762494087219 -0.0376156829297542572
-0.824279963970184326 0.207561060786247253 -0.0521598644554615021
-0.825647652149200439 0.212200835347175598 -0.0557066015899181366
-0.856670796871185303 0.21230711042881012 -0.0410735011100769043
-0.849438250064849854 0.213336184620857239 -0.0397677123546600342
-0.839833676815032959 0.213342428207397461 -0.0567334592342376709
-0.839488804340362549 0.209217444062232971 -0.0530151091516017914
-0.84823840856552124 0.209900259971618652 -0.0542417243123054504
-0.848536312580108643 0.213581755757331848 -0.0579807497560977936
-0.82498776912689209 0.208476603031158447 -0.0394803807139396667
-0.824034273624420166 0.206559047102928162 -0.045734696090221405
-0.826443850994110107 0.212747111916542053 -0.0369160212576389313
-0.840224802494049072 0.219292759895324707 -0.0579684078693389893
-0.840560972690582275 0.224891245365142822 -0.0546044781804084778
-0.826266467571258545 0.225594684481620789 -0.0525408685207366943
-0.826523303985595703 0.219326511025428772 -0.0562748759984970093
-0.840921938419342041 0.213503569364547729 -0.0384074747562408447
-0.839276373386383057 0.208007350564002991 -0.0473621673882007599
-0.840040922164916992 0.209517195820808411 -0.0418024547398090363
-0.840657293796539307 0.22737160325050354 -0.0467285625636577606
-0.848803877830505371 0.223840117454528809 -0.0554824993014335632
-0.865698158740997314 0.217847123742103577 -0.0596304833889007568
-0.856026351451873779 0.218325376510620117 -0.0591864809393882751
-0.855894684791564941 0.21322968602180481 -0.0594205930829048157
-0.865937948226928711 0.213035300374031067 -0.0604670420289039612
-0.848805785179138184 0.218691542744636536 -0.0586356036365032196
-0.855890333652496338 0.223009824752807617 -0.055639956146478653
-0.8666534423828125 0.208353117108345032 -0.0469286851584911346
-0.86633002758026123 0.207381486892700195 -0.0527296699583530426
-0.866962611675262451 0.211024224758148193 -0.042964104562997818
-0.826338529586791992 0.228394150733947754 -0.0446477010846138
-0.866568386554718018 0.22092205286026001 -0.0433507263660430908
-0.866890072822570801 0.215287387371063232 -0.0415452942252159119
-0.855716705322265625 0.209222078323364258 -0.0560062900185585022
-0.865845918655395508 0.208738937973976135 -0.0578932389616966248
-0.865495979785919189 0.222001209855079651 -0.0560662969946861267
-0.865522623062133789 0.223786085844039917 -0.0492250137031078339
-0.873393535614013672 0.220780402421951294 -0.0567873157560825348
-0.873697280883789062 0.222298562526702881 -0.05050697922706604
-0.874815225601196289 0.21985316276550293 -0.0447868965566158295
-0.874367594718933105 0.214457705616950989 -0.0431032367050647736
-0.873698592185974121 0.210655376315116882 -0.0446310751140117645
-0.873243391513824463 0.217231765389442444 -0.0601061359047889709
-0.872813701629638672 0.213072493672370911 -0.0609000921249389648
-0.872110307216644287 0.208899900317192078 -0.0586711801588535309
-0.880413591861724854 0.216489866375923157 -0.0611188784241676331
-0.881600379943847656 0.219832688570022583 -0.0581193529069423676
-0.894376754760742188 0.215843111276626587 -0.0484992451965808868
-0.888821959495544434 0.217080190777778625 -0.0468100495636463165
-0.889808416366577148 0.218937382102012634 -0.0497378557920455933
-0.894967257976531982 0.21862204372882843 -0.0503846444189548492
-0.883036494255065918 0.2192363440990448 -0.0465935096144676208
-0.886089742183685303 0.219866424798965454 -0.0496859736740589142
-0.88521122932434082 0.220627903938293457 -0.053021647036075592
-0.889699935913085938 0.220504224300384521 -0.0539098158478736877
-0.888888001441955566 0.219323500990867615 -0.0579643510282039642
-0.893820226192474365 0.219287604093551636 -0.0590205453336238861
-0.895036160945892334 0.220636054873466492 -0.0547691285610198975
-0.885097503662109375 0.219925597310066223 -0.0565902441740036011
-0.89860069751739502 0.218355447053909302 -0.0517771169543266296
-0.898836076259613037 0.215745925903320312 -0.051726561039686203
-0.880823731422424316 0.221498891711235046 -0.0520331114530563354
-0.8808441162109375 0.214342117309570312 -0.04442586749792099
-0.887706398963928223 0.213359057903289795 -0.0459904111921787262
-0.893708169460296631 0.212456971406936646 -0.0487981922924518585
-0.898019194602966309 0.212461039423942566 -0.0526642948389053345
-0.88691103458404541 0.209662124514579773 -0.0478665903210639954
-0.893028795719146729 0.209537208080291748 -0.0506349317729473114
-0.896680831909179688 0.210214555263519287 -0.0539238080382347107
-0.886206090450286865 0.20698508620262146 -0.0515445247292518616
-0.89240264892578125 0.20771440863609314 -0.0536073632538318634
-0.878089964389801025 0.207763433456420898 -0.0496093779802322388
-0.879166483879089355 0.210412770509719849 -0.0458740629255771637
-0.895241498947143555 0.208979398012161255 -0.0550945326685905457
-0.900791585445404053 0.217027455568313599 -0.0563615597784519196
-0.899720609188079834 0.213712647557258606 -0.0570601113140583038
-0.900015771389007568 0.220252722501754761 -0.055438503623008728
-0.887888669967651367 0.217644676566123962 -0.0600627623498439789
-0.893259108066558838 0.217191681265830994 -0.0609950721263885498
-0.887129485607147217 0.21577531099319458 -0.0621811263263225555
-0.893065392971038818 0.215302497148513794 -0.0627390295267105103
-0.898236513137817383 0.217431023716926575 -0.0604783445596694946
-0.897891700267791748 0.21947149932384491 -0.059179212898015976
-0.872839927673339844 0.208211973309516907 -0.0483649373054504395
-0.872214019298553467 0.207421481609344482 -0.0537281893193721771
-0.877611637115478516 0.206716448068618774 -0.0549055673182010651
-0.885668933391571045 0.206086575984954834 -0.0568055175244808197
-0.877297461032867432 0.208551779389381409 -0.0595586784183979034
-0.87904655933380127 0.212696731090545654 -0.0617318339645862579
-0.886212825775146484 0.212387725710868835 -0.0626520067453384399
-0.885487854480743408 0.20846286416053772 -0.0610164254903793335
-0.892271757125854492 0.212301313877105713 -0.0627388060092926025
-0.891588330268859863 0.209051176905632019 -0.0613086000084877014
-0.891937613487243652 0.207208052277565002 -0.057762783020734787
-0.896421492099761963 0.211876511573791504 -0.0612357035279273987
-0.897853434085845947 0.214733406901359558 -0.0613941513001918793
-0.897824347019195557 0.210947558283805847 -0.0575646758079528809
-0.894927799701690674 0.209719374775886536 -0.0605190768837928772
-0.895514190196990967 0.209057226777076721 -0.057863384485244751
-0.845081746578216553 0.208320587873458862 -0.0693467259407043457
-0.843377768993377686 0.205252915620803833 -0.0739111527800559998
-0.837167084217071533 0.206063792109489441 -0.0723655447363853455
-0.839110791683197021 0.208915486931800842 -0.0678031370043754578
-0.845661163330078125 0.220489263534545898 -0.0702246874570846558
-0.846413075923919678 0.217264771461486816 -0.0679989680647850037
-0.840218603610992432 0.218055024743080139 -0.0658898055553436279
-0.838779270648956299 0.221936225891113281 -0.0680314153432846069
-0.844185471534729004 0.221701741218566895 -0.0754270106554031372
-0.836659848690032959 0.222953304648399353 -0.0737751498818397522
-0.831912636756896973 0.222692832350730896 -0.0660367757081985474
-0.833764851093292236 0.218070909380912781 -0.0637750923633575439
-0.823340296745300293 0.21744595468044281 -0.061437070369720459
-0.821550607681274414 0.222921788692474365 -0.0634758397936820984
-0.846324145793914795 0.212894469499588013 -0.0677264928817749023
-0.840266108512878418 0.213428482413291931 -0.0658832788467407227
-0.827669262886047363 0.207557573914527893 -0.0786005482077598572
-0.828348636627197266 0.205149531364440918 -0.075193457305431366
-0.835728108882904053 0.205870121717453003 -0.0770996958017349243
