ply
format ascii 1.0
element vertex 127
property float x
property float y
property float z
end_header
0.00252841785550117493 -0.377825349569320679 0.00733596552163362503
0.0521609857678413391 -0.285357892513275146 0.0386919751763343811
-0.0565622635185718536 -0.277115195989608765 0.0389149785041809082
0.00465418212115764618 -0.487894833087921143 0.0228884071111679077
0.103833481669425964 0.0662069022655487061 0.0687404423952102661
-0.119023576378822327 0.0554520785808563232 0.0465828888118267059
0.0205582734197378159 -0.636996269226074219 0.00154473260045051575
0.0485346689820289612 0.40902179479598999 0.191967815160751343
-0.117435500025749207 0.417911529541015625 0.13400404155254364
0.0108837801963090897 -0.689012587070465088 -0.0265431441366672516
0.102966040372848511 0.474552690982818604 0.0873464345932006836
-0.17042204737663269 0.481499910354614258 0.0292396396398544312
0.00573490466922521591 -0.853934407234191895 -0.0354143828153610229
0.0571091324090957642 -0.770750582218170166 -0.0425608605146408081
-0.030497254803776741 -0.774699568748474121 -0.0310019180178642273
0.0350862964987754822 -1.01641356945037842 -0.0831743031740188599
0.185675859451293945 -0.783096969127655029 -0.0371585004031658173
-0.141022250056266785 -0.795733511447906494 -0.0214570872485637665
0.182266399264335632 -0.544163703918457031 0.0453361235558986664
-0.18791276216506958 -0.550645411014556885 0.0523662157356739044
0.219263896346092224 -0.316171199083328247 -0.0214296989142894745
-0.227795392274856567 -0.324738264083862305 -0.00878568366169929504
0.0199135243892669678 -1.01583147048950195 -0.0760549232363700867
0.0483826398849487305 -1.05592131614685059 -0.15069165825843811
-0.0136173367500305176 -1.05588090419769287 -0.144562244415283203
0.226666837930679321 -0.2385445237159729 -0.0814221352338790894
0.21693246066570282 -0.208626642823219299 -0.0838313773274421692
0.200889959931373596 -0.213485047221183777 -0.0691392570734024048
0.238764688372612 -0.224665045738220215 -0.0660936683416366577
0.21606716513633728 -0.205119937658309937 -0.062128603458404541
0.201377987861633301 -0.221196532249450684 -0.0535308420658111572
0.240942046046257019 -0.227911412715911865 -0.0194260589778423309
0.221833229064941406 -0.22848142683506012 -0.0218973308801651001
0.212079137563705444 -0.244143083691596985 -0.017583746463060379
0.242338716983795166 -0.224945217370986938 -0.0405437052249908447
0.217022016644477844 -0.213182657957077026 -0.0389886237680912018
0.203557312488555908 -0.231388121843338013 -0.0328807942569255829
0.202961280941963196 -0.287105262279510498 -0.0564271509647369385
0.195186227560043335 -0.258510291576385498 -0.0540599226951599121
0.196329325437545776 -0.235836133360862732 -0.0661679059267044067
-0.235314056277275085 -0.251021921634674072 -0.0713586211204528809
-0.222951188683509827 -0.222011998295783997 -0.0702621713280677795
-0.210728392004966736 -0.230686992406845093 -0.0537645071744918823
-0.250149369239807129 -0.238065749406814575 -0.0577166453003883362
-0.227947399020195007 -0.218752026557922363 -0.050864141434431076
-0.213790968060493469 -0.234506219625473022 -0.0408871248364448547
-0.255932837724685669 -0.239811927080154419 -0.0112779848277568817
-0.238208293914794922 -0.232297182083129883 -0.0103183090686798096
-0.224703848361968994 -0.244283795356750488 -0.00457607023417949677
-0.255841553211212158 -0.23780900239944458 -0.032553352415561676
-0.23170432448387146 -0.224462777376174927 -0.0279758349061012268
-0.216721192002296448 -0.240166336297988892 -0.0190923847258090973
-0.208568096160888672 -0.295582115650177002 -0.042304307222366333
-0.20667564868927002 -0.266097605228424072 -0.0390258990228176117
-0.212110608816146851 -0.243652641773223877 -0.0503708422183990479
0.0133703574538230896 -1.01804327964782715 -0.197165951132774353
-0.0158391781151294708 -1.05648338794708252 -0.157854124903678894
0.0502365045249462128 -1.05702745914459229 -0.164122238755226135
-0.0448407456278800964 -1.02611279487609863 -0.0639051049947738647
0.0964183658361434937 -1.03312587738037109 -0.0795082598924636841
0.0779735222458839417 0.4839668869972229 0.0111783901229500771
0.140829950571060181 0.486912429332733154 0.0656025782227516174
0.0666603520512580872 0.436123549938201904 0.256979495286941528
-0.132458359003067017 0.485812783241271973 -0.040150027722120285
-0.199783354997634888 0.490663290023803711 0.0167777631431818008
-0.114199034869670868 0.460834980010986328 0.204081118106842041
0.192472606897354126 -0.206657946109771729 -0.0568036139011383057
0.184334695339202881 -0.224378481507301331 -0.0568120181560516357
0.192452341318130493 -0.244851410388946533 -0.0513709969818592072
0.199280411005020142 -0.252806037664413452 -0.0389622747898101807
0.205698937177658081 -0.266524553298950195 -0.0171483308076858521
-0.214820295572280884 -0.215424478054046631 -0.0393698066473007202
-0.197180718183517456 -0.242758646607398987 -0.0391322970390319824
-0.204077959060668945 -0.257884383201599121 -0.0369597263634204865
-0.208667278289794922 -0.261226087808609009 -0.0227636992931365967
-0.212040066719055176 -0.262643933296203613 -0.00467389822006225586
-0.0412839092314243317 -1.06027483940124512 -0.128891974687576294
-0.034669928252696991 -1.075836181640625 -0.145451560616493225
-0.0218702405691146851 -1.07973575592041016 -0.160451307892799377
-0.00757565721869468689 -1.07848560810089111 -0.169203519821166992
0.00529405241832137108 -1.07399439811706543 -0.172656267881393433
0.0240379050374031067 -1.07416057586669922 -0.174436360597610474
0.0371499136090278625 -1.07886266708374023 -0.173660770058631897
0.0529176332056522369 -1.08075547218322754 -0.167971998453140259
0.0686794668436050415 -1.0779874324798584 -0.155517205595970154
0.0787469148635864258 -1.06241118907928467 -0.141699880361557007
0.0146527811884880066 -1.05903780460357666 -0.176507502794265747
0.014082697220146656 -1.04797589778900146 -0.184346601366996765
0.0132802948355674744 -1.03747725486755371 -0.192139506340026855
0.0128707252442836761 -1.02681183815002441 -0.198853299021720886
0.00130677083507180214 -1.01714026927947998 -0.175254583358764648
0.00763670867308974266 -1.01420342922210693 -0.179275795817375183
0.0150866545736789703 -1.01165974140167236 -0.181825742125511169
0.0225173383951187134 -1.01439738273620605 -0.180619806051254272
0.0294215194880962372 -1.01765155792236328 -0.177926808595657349
-0.0277475565671920776 -1.05545485019683838 -0.146989569067955017
-0.0194895565509796143 -1.06224930286407471 -0.156382441520690918
-0.0100793316960334778 -1.0613396167755127 -0.158082053065299988
-0.00119409430772066116 -1.05463862419128418 -0.156922221183776855
-0.00986945070326328278 -1.05201148986816406 -0.158652812242507935
-0.0191516950726509094 -1.05190813541412354 -0.156743019819259644
0.0336522981524467468 -1.05503690242767334 -0.161034911870956421
0.0423039793968200684 -1.06230556964874268 -0.163621008396148682
0.051806718111038208 -1.06340360641479492 -0.163953781127929688
0.0617606118321418762 -1.05648255348205566 -0.15647144615650177
0.0512390732765197754 -1.05288660526275635 -0.163916990160942078
0.0420021489262580872 -1.05313229560852051 -0.163955837488174438
-0.0114890551194548607 -0.990580618381500244 -0.154673144221305847
-0.00298160500824451447 -0.99748539924621582 -0.169301405549049377
0.00826546456664800644 -0.999962925910949707 -0.176856309175491333
0.0154231097549200058 -0.999581634998321533 -0.178280636668205261
0.0227759554982185364 -1.00012493133544922 -0.178255513310432434
0.0352254658937454224 -0.998315215110778809 -0.173022180795669556
0.0455698147416114807 -0.99030303955078125 -0.160186767578125
0.0359239727258682251 -0.979744613170623779 -0.167381972074508667
0.0237790476530790329 -0.976758778095245361 -0.173342525959014893
0.0156299136579036713 -0.976226270198822021 -0.173726379871368408
0.00757172657176852226 -0.976819396018981934 -0.171913564205169678
-0.00339405238628387451 -0.979757606983184814 -0.163804620504379272
-0.0104705644771456718 -0.989808619022369385 -0.154578447341918945
0.00898353103548288345 -0.994902610778808594 -0.170394435524940491
0.0159973260015249252 -0.994695544242858887 -0.171927139163017273
0.0231674201786518097 -0.99510347843170166 -0.171951711177825928
0.0452092736959457397 -0.990305900573730469 -0.160293921828269958
0.0243797246366739273 -0.982568144798278809 -0.168818727135658264
0.0161233469843864441 -0.982711672782897949 -0.168478056788444519
0.00794067978858947754 -0.982837915420532227 -0.167261853814125061
