ply
format ascii 1.0
element vertex 721
property float x
property float y
property float z
end_header
-0.207797139883041382 -0.448677241802215576 0.0324118584394454956
-0.279826998710632324 -0.41131165623664856 0.00519058108329772949
-0.286708474159240723 -0.410462796688079834 0.0204518735408782959
-0.288840204477310181 -0.390792548656463623 0.0137286186218261719
-0.280840009450912476 -0.39147832989692688 0.000508129596710205078
-0.235722333192825317 -0.407946914434432983 -0.0026569068431854248
-0.223849445581436157 -0.404113978147506714 0.00769449770450592041
-0.223880559206008911 -0.425618886947631836 0.00930871069431304932
-0.235250309109687805 -0.429816782474517822 -0.00249254703521728516
-0.277863860130310059 -0.431145578622817993 0.0112937241792678833
-0.282481908798217773 -0.429873794317245483 0.0281017124652862549
-0.237696468830108643 -0.366540819406509399 -0.00462904572486877441
-0.227366417646408081 -0.362903624773025513 0.00518342852592468262
-0.225104868412017822 -0.383182018995285034 0.00615981221199035645
-0.236855804920196533 -0.386754244565963745 -0.00367003679275512695
-0.251387834548950195 -0.31234857439994812 0.0467011183500289917
-0.263871431350708008 -0.314080506563186646 0.0507750809192657471
-0.258429199457168579 -0.330485880374908447 0.0603918880224227905
-0.245502486824989319 -0.328824311494827271 0.0551263093948364258
-0.233903467655181885 -0.325284421443939209 0.000607103109359741211
-0.231856465339660645 -0.320476233959197998 0.0122380852699279785
-0.231053709983825684 -0.34355461597442627 0.00409203767776489258
-0.294285327196121216 -0.329174935817718506 0.0194708108901977539
-0.293503910303115845 -0.332223355770111084 0.00627365708351135254
-0.294218629598617554 -0.349925249814987183 0.0152526199817657471
-0.294353365898132324 -0.346763402223587036 0.0296163856983184814
-0.210474118590354919 -0.392357081174850464 0.0353217422962188721
-0.215104848146438599 -0.398758649826049805 0.0208668261766433716
-0.217458680272102356 -0.377961844205856323 0.0195411443710327148
-0.214732035994529724 -0.371767252683639526 0.0346502065658569336
-0.266559362411499023 -0.411504119634628296 -0.00428780913352966309
-0.266467273235321045 -0.390773504972457886 -0.00648319721221923828
-0.292964249849319458 -0.365817815065383911 0.0379102975130081177
-0.294094592332839966 -0.369246095418930054 0.0222585946321487427
-0.29221615195274353 -0.388905584812164307 0.0295350998640060425
-0.289859414100646973 -0.38489648699760437 0.0463496595621109009
-0.276952981948852539 -0.397789478302001953 0.068951338529586792
-0.265310317277908325 -0.392106711864471436 0.0794968903064727783
-0.272749990224838257 -0.374109089374542236 0.0717954188585281372
-0.282489091157913208 -0.379601061344146729 0.0605914145708084106
-0.208754420280456543 -0.413745075464248657 0.0351001322269439697
-0.20765531063079834 -0.406955927610397339 0.0508116036653518677
-0.221126154065132141 -0.381379872560501099 0.0685301125049591064
-0.235120415687561035 -0.38224908709526062 0.0793842971324920654
-0.226035267114639282 -0.400778502225875854 0.0813046246767044067
-0.21335698664188385 -0.401364266872406006 0.067895352840423584
-0.254393577575683594 -0.46732136607170105 -0.000848203897476196289
-0.269129723310470581 -0.468806833028793335 0.00846889615058898926
-0.269317626953125 -0.453075289726257324 0.00262099504470825195
-0.252924293279647827 -0.452557981014251709 -0.0047619938850402832
-0.275946110486984253 -0.450884431600570679 0.0184956490993499756
-0.273595184087753296 -0.467459917068481445 0.0252577066421508789
-0.263996690511703491 -0.489331185817718506 0.0492531508207321167
-0.261319905519485474 -0.487628936767578125 0.0634174197912216187
-0.265341997146606445 -0.476793974637985229 0.0611765235662460327
-0.266673237085342407 -0.477581679821014404 0.0462118461728096008
-0.262548595666885376 -0.432888388633728027 0.084253653883934021
-0.24714776873588562 -0.428508490324020386 0.0914255380630493164
-0.256646215915679932 -0.410196512937545776 0.0861523896455764771
-0.270217150449752808 -0.415539413690567017 0.0768372118473052979
-0.222252905368804932 -0.439241349697113037 0.0892428159713745117
-0.210536211729049683 -0.434800326824188232 0.0779424905776977539
-0.217524737119674683 -0.418916940689086914 0.0804134011268615723
-0.231488287448883057 -0.423059225082397461 0.0897114425897598267
-0.195146799087524414 -0.49082377552986145 0.0751930028200149536
-0.189093589782714844 -0.489577800035476685 0.0636046379804611206
-0.195109903812408447 -0.475045263767242432 0.0682053416967391968
-0.202102124691009521 -0.476479917764663696 0.0802088528871536255
-0.191208049654960632 -0.478468656539916992 0.0387712568044662476
-0.185874238610267639 -0.491077542304992676 0.0343911312520503998
-0.190674722194671631 -0.492469578981399536 0.0201971307396888733
-0.195876896381378174 -0.480779200792312622 0.0255178213119506836
-0.247407913208007812 -0.509551525115966797 0.0111355334520339966
-0.258564621210098267 -0.513812065124511719 0.0253628939390182495
-0.262022852897644043 -0.502589941024780273 0.0218652114272117615
-0.250352293252944946 -0.498762816190719604 0.00893369317054748535
-0.255434215068817139 -0.448211073875427246 0.0900120064616203308
-0.237296491861343384 -0.446336805820465088 0.0952648967504501343
-0.195931226015090942 -0.467211097478866577 0.0419461280107498169
-0.200619667768478394 -0.470898807048797607 0.0288995802402496338
-0.20527493953704834 -0.460645735263824463 0.0309148728847503662
-0.199977219104766846 -0.455640494823455811 0.0438189730048179626
-0.221901044249534607 -0.481448858976364136 0.0114233791828155518
-0.236683949828147888 -0.485094398260116577 0.00316156446933746338
-0.237614721059799194 -0.475538939237594604 0.00200021266937255859
-0.224554926156997681 -0.471153885126113892 0.012526974081993103
-0.252050399780273438 -0.48925250768661499 0.00626438111066818237
-0.264738142490386963 -0.492462217807769775 0.0180429369211196899
-0.267450332641601562 -0.481367886066436768 0.013690754771232605
-0.253822267055511475 -0.478920102119445801 0.00288458168506622314
-0.251489698886871338 -0.459860175848007202 0.0924697369337081909
-0.261780142784118652 -0.464115232229232788 0.0850208401679992676
-0.256271868944168091 -0.473087966442108154 0.0872491076588630676
-0.246335715055465698 -0.469128161668777466 0.0938810408115386963
-0.214693188667297363 -0.452683925628662109 0.0861325636506080627
-0.20539391040802002 -0.449166476726531982 0.0750234127044677734
-0.226376384496688843 -0.459582269191741943 0.012259945273399353
-0.216920420527458191 -0.454199552536010742 0.0228854715824127197
-0.214367479085922241 -0.465966284275054932 0.0220413655042648315
-0.270819514989852905 -0.480317562818527222 0.0302706360816955566
-0.203253179788589478 -0.492495596408843994 0.0838615447282791138
-0.213101759552955627 -0.495428204536437988 0.0891281366348266602
-0.203875750303268433 -0.509716987609863281 0.0865548551082611084
-0.194356381893157959 -0.506890296936035156 0.079996846616268158
-0.187273919582366943 -0.505341410636901855 0.0705134719610214233
-0.182449266314506531 -0.50492393970489502 0.0584580376744270325
-0.17975170910358429 -0.505976557731628418 0.0287941545248031616
-0.184550836682319641 -0.507107257843017578 0.0143580548465251923
-0.195075288414955139 -0.510141134262084961 0.00358391925692558289
-0.209152579307556152 -0.515077888965606689 -0.000648643821477890015
-0.215306550264358521 -0.499907076358795166 0.00463722646236419678
-0.200824588537216187 -0.495412975549697876 0.00978854671120643616
-0.239968582987785339 -0.527295589447021484 0.0111296474933624268
-0.250757575035095215 -0.531372368335723877 0.0250173527747392654
-0.259770631790161133 -0.513519644737243652 0.0406589582562446594
-0.253501147031784058 -0.530670404434204102 0.040719103068113327
-0.195580780506134033 -0.463786274194717407 0.0573487579822540283
-0.191169425845146179 -0.476255536079406738 0.0539327561855316162
-0.286737322807312012 -0.361176550388336182 0.0518453419208526611
-0.278344184160232544 -0.356143265962600708 0.063277125358581543
-0.282197654247283936 -0.338186502456665039 0.0541649013757705688
-0.289703309535980225 -0.342624366283416748 0.0430596619844436646
-0.275651931762695312 -0.317407429218292236 0.0495975762605667114
-0.271737962961196899 -0.333913445472717285 0.0602445900440216064
-0.251504987478256226 -0.36901479959487915 -0.00909522175788879395
-0.251266002655029297 -0.389221608638763428 -0.00790190696716308594
-0.263173311948776245 -0.333786129951477051 -0.0161376595497131348
-0.237979575991630554 -0.464119702577590942 0.000247359275817871094
-0.236569404602050781 -0.449971705675125122 -0.00164493918418884277
-0.258032858371734619 -0.485377252101898193 0.0778585225343704224
-0.258522391319274902 -0.498333096504211426 0.066819608211517334
-0.253030836582183838 -0.495435923337936401 0.0796337723731994629
-0.26868477463722229 -0.45393747091293335 0.0796894580125808716
-0.275417566299438477 -0.439345866441726685 0.0716690272092819214
-0.278324604034423828 -0.44556736946105957 0.0534314066171646118
-0.271911203861236572 -0.46314731240272522 0.0627963989973068237
-0.240173071622848511 -0.477810531854629517 0.0938072130084037781
-0.250481009483337402 -0.481836110353469849 0.0882135182619094849
-0.244040220975875854 -0.491844534873962402 0.0884961634874343872
-0.232913702726364136 -0.487726092338562012 0.0927978754043579102
-0.231575757265090942 -0.504564046859741211 0.00445951521396636963
-0.234417229890823364 -0.493892580270767212 0.00446627289056777954
-0.247929275035858154 -0.52579653263092041 0.0709954798221588135
-0.254179537296295166 -0.510657548904418945 0.0695608183741569519
-0.257640659809112549 -0.511948943138122559 0.0555826425552368164
-0.25244256854057312 -0.527445435523986816 0.0569606907665729523
-0.261508762836456299 -0.50026094913482666 0.0526810251176357269
-0.239324718713760376 -0.522926807403564453 0.0811739265918731689
-0.247003182768821716 -0.507891237735748291 0.0806535035371780396
-0.225352048873901367 -0.521264731884002686 0.00185134261846542358
-0.224960088729858398 -0.499948471784591675 0.0908081978559494019
-0.236868441104888916 -0.504158258438110352 0.08787517249584198
-0.228205353021621704 -0.51900482177734375 0.0871787667274475098
-0.215579256415367126 -0.514510869979858398 0.0889465957880020142
-0.266299039125442505 -0.351387321949005127 0.0687683075666427612
-0.259207636117935181 -0.368784964084625244 0.0765478163957595825
-0.203033015131950378 -0.436192333698272705 0.062291368842124939
-0.207578182220458984 -0.420305907726287842 0.0653576254844665527
-0.199579983949661255 -0.450873881578445435 0.0596022456884384155
-0.226661846041679382 -0.34753766655921936 0.0484767556190490723
-0.234172284603118896 -0.329882711172103882 0.0441272556781768799
-0.21197161078453064 -0.385711669921875 0.052092432975769043
-0.218821585178375244 -0.365964055061340332 0.0513564497232437134
-0.285507261753082275 -0.403775662183761597 0.0546295195817947388
-0.218277424573898315 -0.468361973762512207 0.0902307629585266113
-0.20871444046497345 -0.464189112186431885 0.0833075791597366333
-0.225534379482269287 -0.457934170961380005 0.0927501469850540161
-0.179392307996749878 -0.505594193935394287 0.0441207736730575562
-0.185795098543167114 -0.490005522966384888 0.0495532341301441193
-0.240803465247154236 -0.45715603232383728 0.0951450467109680176
-0.170551091432571411 -0.525832056999206543 0.0379442796111106873
-0.270655393600463867 -0.464604884386062622 0.0428985506296157837
-0.267485469579696655 -0.491873234510421753 0.0339583605527877808
-0.26427045464515686 -0.502313375473022461 0.0375801175832748413
-0.287274867296218872 -0.334070891141891479 -0.00591370463371276855
-0.250380516052246094 -0.410331308841705322 -0.00720775127410888672
-0.225455701351165771 -0.445322155952453613 0.0111330002546310425
-0.21605585515499115 -0.439667314291000366 0.0226979702711105347
-0.22885441780090332 -0.473043084144592285 0.0939437374472618103
-0.221207484602928162 -0.483189523220062256 0.0921894311904907227
-0.211139217019081116 -0.479461997747421265 0.0877868607640266418
-0.218854367733001709 -0.489611417055130005 0.00936086475849151611
-0.205599784851074219 -0.484633266925811768 0.0155312567949295044
-0.240816026926040649 -0.31291845440864563 0.0376423895359039307
-0.209948867559432983 -0.476009786128997803 0.0195753574371337891
-0.27646028995513916 -0.448235988616943359 0.0361872315406799316
0.00598152261227369308 -0.740118145942687988 0.0737414658069610596
-0.128429204225540161 -0.541071951389312744 -0.0140356589108705521
-0.0988777056336402893 -0.505603194236755371 -0.0553132295608520508
-0.1115584596991539 -0.51200568675994873 -0.0415136590600013733
-0.137366741895675659 -0.594657778739929199 0.00018894486129283905
-0.13795962929725647 -0.604728221893310547 0.00128198787569999695
-0.138795465230941772 -0.637033820152282715 0.00588034559041261673
-0.141277104616165161 -0.650263786315917969 0.00908926036208868027
-0.129907548427581787 -0.575384259223937988 -0.0216975416988134384
-0.0532737895846366882 -0.951851248741149902 -0.0288411080837249756
-0.0516571253538131714 -0.94475632905960083 -0.0256210882216691971
-0.0553451851010322571 -0.965680480003356934 -0.0300752855837345123
-0.0165618956089019775 -0.34638136625289917 -0.0976820066571235657
-0.0559406839311122894 -0.935990810394287109 -0.0388006977736949921
-0.0537696667015552521 -0.927034139633178711 -0.0366952382028102875
-0.0589048229157924652 -0.931013226509094238 -0.0379933342337608337
-0.0555535219609737396 -0.937175989151000977 -0.040849342942237854
-0.0555995069444179535 -0.938445329666137695 -0.0414829626679420471
-0.0571951083838939667 -0.967145681381225586 -0.0406333319842815399
-0.0496503785252571106 -0.936150014400482178 -0.0246924888342618942
-0.0479894019663333893 -0.926808834075927734 -0.0256779491901397705
-0.0560454092919826508 -0.952497124671936035 -0.0456407517194747925
-0.0399202108383178711 -0.354659825563430786 0.106803134083747864
-0.0191341377794742584 -0.352491319179534912 0.105726152658462524
-0.021480068564414978 -0.334438979625701904 0.110602617263793945
-0.0436318293213844299 -0.335967451333999634 0.109783336520195007
-0.0226699095219373703 -0.317916691303253174 0.118830755352973938
-0.131620794534683228 -0.289981842041015625 0.102392584085464478
-0.146902412176132202 -0.291682243347167969 0.0813832581043243408
-0.139903143048286438 -0.311907559633255005 0.0768257230520248413
-0.125277787446975708 -0.310460060834884644 0.0957806482911109924
-0.145885482430458069 -0.326167374849319458 0.0532805994153022766
-0.135190099477767944 -0.329005181789398193 0.0739377140998840332
-0.150893434882164001 -0.310067743062973022 0.0545371100306510925
-0.15721537172794342 -0.303839683532714844 0.03163117915391922
-0.151606813073158264 -0.320774197578430176 0.0309321042150259018
-0.156552597880363464 -0.293790757656097412 0.0101128201931715012
-0.150549039244651794 -0.31191408634185791 0.00959138758480548859
-0.151124089956283569 -0.282056331634521484 -0.00980889052152633667
-0.139864668250083923 -0.27073177695274353 -0.0272136405110359192
-0.124846450984477997 -0.236383408308029175 -0.0393523052334785461
-0.0993971675634384155 -0.248574674129486084 -0.0514204874634742737
-0.121416002511978149 -0.259204685688018799 -0.0408638231456279755
-0.05808301642537117 -0.234440416097640991 -0.0672537684440612793
-0.0775743424892425537 -0.239647477865219116 -0.0600038394331932068
-0.024401344358921051 -0.229109615087509155 -0.0764829516410827637
-0.0406630821526050568 -0.231220513582229614 -0.0727589875459671021
-0.0934209227561950684 -0.710717082023620605 -0.0626312196254730225
-0.0784552842378616333 -0.793769776821136475 0.0231253504753112793
-0.0896613895893096924 -0.78741753101348877 0.0263123977929353714
-0.101980701088905334 -0.78559112548828125 0.00513998791575431824
-0.100423984229564667 -0.744894087314605713 0.0758156701922416687
-0.107337512075901031 -0.759682714939117432 0.0613040663301944733
-0.0840003341436386108 -0.759148001670837402 0.0709534063935279846
-0.0789536088705062866 -0.744528889656066895 0.0821298211812973022
-0.0646247044205665588 -0.792974591255187988 0.0378578677773475647
-0.0574069991707801819 -0.796948432922363281 0.0352391935884952545
-0.073026701807975769 -0.787869930267333984 0.0428024940192699432
-0.0334124937653541565 -0.781506776809692383 0.0581486150622367859
-0.0537992008030414581 -0.785329461097717285 0.0534614957869052887
-0.149951577186584473 -0.765856325626373291 0.00771215371787548065
-0.143402040004730225 -0.761123418807983398 0.0304579287767410278
-0.153889790177345276 -0.756935298442840576 0.0275469906628131866
-0.162069708108901978 -0.759971678256988525 0.00441378261893987656
-0.128532737493515015 -0.726025044918060303 0.0736586302518844604
-0.122431352734565735 -0.71296381950378418 0.082315400242805481
-0.133187353610992432 -0.709990978240966797 0.076339326798915863
-0.137284934520721436 -0.721779048442840576 0.0684436112642288208
-0.191861003637313843 -0.720279574394226074 -0.00213276967406272888
-0.186779379844665527 -0.724587023258209229 0.018915373831987381
-0.195938035845756531 -0.708721935749053955 0.0179490484297275543
-0.199858203530311584 -0.703090786933898926 -0.00164778158068656921
-0.140355199575424194 -0.734575033187866211 0.0588302835822105408
-0.0577132552862167358 -0.633682310581207275 0.114902451634407043
-0.0755445212125778198 -0.641985416412353516 0.113087072968482971
-0.0915977433323860168 -0.649409770965576172 0.106736421585083008
-0.125481992959976196 -0.663062989711761475 0.0883805230259895325
-0.118052572011947632 -0.660300791263580322 0.0931347906589508057
-0.120749473571777344 -0.64692920446395874 0.09008016437292099
-0.131662502884864807 -0.66490638256072998 0.0831580981612205505
-0.13824915885925293 -0.665940284729003906 0.0758228525519371033
-0.155397623777389526 -0.647056043148040771 -0.0395133271813392639
-0.152777224779129028 -0.655946195125579834 -0.0449357107281684875
-0.16646750271320343 -0.674786567687988281 -0.0433512032032012939
-0.145349234342575073 -0.656555473804473877 0.0664779096841812134
-0.140623778104782104 -0.661743998527526855 0.0660600811243057251
-0.141046643257141113 -0.657242834568023682 0.0648632049560546875
-0.144729122519493103 -0.653385400772094727 0.0649856626987457275
-0.137289345264434814 -0.770945370197296143 0.00944033823907375336
-0.189733639359474182 -0.70761716365814209 0.0342742949724197388
-0.179945334792137146 -0.721527040004730225 0.0360901840031147003
-0.172558486461639404 -0.71472090482711792 0.0489995405077934265
-0.182995244860649109 -0.70239710807800293 0.0460351929068565369
-0.174658030271530151 -0.696317732334136963 0.0561361275613307953
-0.164032071828842163 -0.706518411636352539 0.0598260536789894104
-0.156591996550559998 -0.697814464569091797 0.0677918717265129089
-0.166776835918426514 -0.689502060413360596 0.0637934580445289612
-0.146668240427970886 -0.660321354866027832 0.0688769221305847168
-0.140629306435585022 -0.666571497917175293 0.068449363112449646
-0.20014016330242157 -0.674415349960327148 -0.016852082684636116
-0.173816889524459839 -0.74155426025390625 -0.0207524485886096954
-0.166494250297546387 -0.724742889404296875 -0.039589758962392807
-0.158019199967384338 -0.736419796943664551 -0.0394145771861076355
-0.163553386926651001 -0.753167212009429932 -0.018802030012011528
-0.142662644386291504 -0.634853184223175049 0.0335221588611602783
-0.14198949933052063 -0.635492682456970215 0.0171163845807313919
-0.142581373453140259 -0.63294684886932373 0.0468258187174797058
-0.14311140775680542 -0.651643693447113037 0.0610866621136665344
-0.142104506492614746 -0.632297098636627197 0.0562207587063312531
-0.144598990678787231 -0.630477964878082275 -0.0261302553117275238
-0.157533556222915649 -0.636865973472595215 -0.0320604071021080017
-0.155670374631881714 -0.703020036220550537 -0.0486252829432487488
-0.148381590843200684 -0.714752674102783203 -0.0501613467931747437
-0.206052392721176147 -0.684668600559234619 -0.000567678362131118774
-0.203519940376281738 -0.690570950508117676 0.0179885923862457275
-0.151365697383880615 -0.647456705570220947 0.0699115395545959473
-0.149022281169891357 -0.643687009811401367 0.0688049048185348511
-0.156021714210510254 -0.63525843620300293 0.071690782904624939
-0.139786258339881897 -0.645986616611480713 0.0690499991178512573
-0.141171425580978394 -0.654343724250793457 0.0638919323682785034
-0.172916978597640991 -0.750015795230865479 0.00146638229489326477
-0.198142409324645996 -0.691635251045227051 0.0334717631340026855
-0.190858989953994751 -0.688310086727142334 0.045427568256855011
-0.153161153197288513 -0.714426577091217041 0.0645997077226638794
-0.16087225079536438 -0.724646985530853271 0.0533974766731262207
-0.149303585290908813 -0.731858730316162109 0.0574522614479064941
-0.143061786890029907 -0.71884763240814209 0.0668129846453666687
-0.176350831985473633 -0.679039955139160156 0.0610342919826507568
-0.169896125793457031 -0.671570062637329102 0.0657271072268486023
-0.13899308443069458 -0.706272244453430176 0.0720210224390029907
-0.14617195725440979 -0.703569114208221436 0.071178920567035675
-0.154362916946411133 -0.651660025119781494 0.0707635730504989624
-0.140052676200866699 -0.723992049694061279 -0.0499922558665275574
-0.131017535924911499 -0.700640082359313965 -0.0548882484436035156
-0.120606496930122375 -0.706644535064697266 -0.0565948560833930969
-0.145393893122673035 -0.679619431495666504 -0.0520656928420066833
-0.138856351375579834 -0.691459298133850098 -0.0539097562432289124
-0.149873659014701843 -0.666058778762817383 -0.0492199435830116272
-0.108121417462825775 -0.708697319030761719 -0.0592376776039600372
-0.23556944727897644 -0.464151203632354736 0.0949122905731201172
-0.153316393494606018 -0.630500972270965576 0.0706821829080581665
-0.161686152219772339 -0.621567010879516602 0.0740313529968261719
-0.163753628730773926 -0.627253532409667969 0.0739803388714790344
-0.206526011228561401 -0.588269650936126709 0.0776820927858352661
0.00888801924884319305 -0.866843640804290771 -0.163694724440574646
0.00922560505568981171 -0.872453927993774414 -0.167030096054077148
0.0098442714661359787 -0.893648684024810791 -0.170623913407325745
0.0100384652614593506 -0.897546768188476562 -0.169928312301635742
-0.263013631105422974 -0.476332724094390869 0.0761866122484207153
-0.266951799392700195 -0.46856805682182312 0.0754061043262481689
-0.280718952417373657 -0.422056972980499268 0.0630316287279129028
-0.288350373506546021 -0.408419966697692871 0.0374243408441543579
-0.283477604389190674 -0.427267760038375854 0.0454781949520111084
-0.267992347478866577 -0.432859629392623901 -0.00241416692733764648
-0.250712454319000244 -0.432285547256469727 -0.00729511678218841553
-0.214754253625869751 -0.420096009969711304 0.0219755321741104126
-0.241202771663665771 -0.404810607433319092 0.0875860452651977539
-0.271849662065505981 -0.299297094345092773 -0.0256554186344146729
-0.283277839422225952 -0.298265814781188965 -0.0195680558681488037
-0.281321018934249878 -0.280422449111938477 -0.0268513858318328857
-0.269371688365936279 -0.281409978866577148 -0.03140297532081604
-0.268068790435791016 -0.264491230249404907 -0.0378963947296142578
-0.257004976272583008 -0.263433635234832764 -0.0362166464328765869
-0.257669240236282349 -0.280383378267288208 -0.0311744213104248047
-0.249481379985809326 -0.260656297206878662 -0.0295657217502593994
-0.248972520232200623 -0.27769017219543457 -0.0257276296615600586
-0.245861142873764038 -0.256902933120727539 -0.0205551087856292725
-0.246519356966018677 -0.253106772899627686 -0.011703193187713623
-0.243861928582191467 -0.270550429821014404 -0.00830754637718200684
-0.244741588830947876 -0.274527490139007568 -0.0172506868839263916
-0.241436749696731567 -0.285024881362915039 0.00498637557029724121
-0.245701402425765991 -0.266660869121551514 0.000939309597015380859
-0.250092118978500366 -0.263483822345733643 0.00999554991722106934
-0.244960010051727295 -0.281607329845428467 0.0155422985553741455
-0.269971340894699097 -0.243351399898529053 0.0157173275947570801
-0.278847694396972656 -0.244538247585296631 0.0163293182849884033
-0.275544315576553345 -0.261590421199798584 0.025283128023147583
-0.265598386526107788 -0.260471820831298828 0.0240879952907562256
-0.288901567459106445 -0.285933017730712891 0.0239979028701782227
-0.281641334295272827 -0.28267204761505127 0.0311416834592819214
-0.284659504890441895 -0.264846861362457275 0.021912693977355957
-0.291714012622833252 -0.268220007419586182 0.0149606764316558838
-0.295580953359603882 -0.251482963562011719 0.006092071533203125
-0.298119962215423584 -0.255701065063476562 -0.0041631162166595459
-0.295065790414810181 -0.271673917770385742 0.0052032768726348877
-0.276425272226333618 -0.334544152021408081 -0.0132908225059509277
-0.274438858032226562 -0.316854923963546753 -0.0194800496101379395
-0.261240512132644653 -0.316032856702804565 -0.0212481021881103516
-0.242856204509735107 -0.292694151401519775 -0.014516294002532959
-0.241081595420837402 -0.31096157431602478 -0.0117181539535522461
-0.249554112553596497 -0.314138263463973999 -0.0185519158840179443
-0.249092951416969299 -0.296055108308792114 -0.0221887826919555664
-0.234110534191131592 -0.316051572561264038 0.0251359045505523682
-0.236693426966667175 -0.302783191204071045 0.00884351134300231934
-0.23967491090297699 -0.298873692750930786 0.0206523090600967407
-0.240505918860435486 -0.288821578025817871 -0.00516459345817565918
-0.237023130059242249 -0.306973487138748169 -0.0022742152214050293
-0.251798093318939209 -0.279122710227966309 0.0254133790731430054
-0.256932556629180908 -0.261415839195251465 0.0183438360691070557
-0.290613859891891479 -0.295687377452850342 -0.00918155908584594727
-0.294039130210876465 -0.292558729648590088 0.00263193249702453613
-0.29426458477973938 -0.27474510669708252 -0.00623011589050292969
-0.289571851491928101 -0.277882754802703857 -0.0172770917415618896
-0.246250897645950317 -0.296139180660247803 0.0318040847778320312
-0.294257581233978271 -0.310640335083007812 0.0110784173011779785
-0.29220426082611084 -0.313797742128372192 -0.00128540396690368652
-0.292856812477111816 -0.289258062839508057 0.0143444240093231201
-0.291890859603881836 -0.307158887386322021 0.023363843560218811
-0.289501816034317017 -0.261583387851715088 -0.0253528058528900146
-0.279981791973114014 -0.263358592987060547 -0.0339059829711914062
-0.285436421632766724 -0.316055983304977417 -0.012636333703994751
-0.261260151863098145 -0.278759002685546875 0.0324744731187820435
-0.27195209264755249 -0.280035018920898438 0.0343061387538909912
-0.268105089664459229 -0.297253012657165527 0.0427273213863372803
-0.256469756364822388 -0.295695245265960693 0.0397658646106719971
-0.2845916748046875 -0.321268260478973389 0.0428317338228225708
-0.27864527702331543 -0.300089716911315918 0.0403212904930114746
-0.286729127168655396 -0.303620725870132446 0.0332020223140716553
-0.287971824407577515 -0.247838675975799561 0.0130279064178466797
-0.290896594524383545 -0.325275540351867676 0.0322880446910858154
-0.267340660095214844 -0.180620014667510986 -0.0533525049686431885
-0.261083990335464478 -0.187302678823471069 -0.0487608611583709717
-0.255875468254089355 -0.185589402914047241 -0.0592209696769714355
-0.262902200222015381 -0.179280579090118408 -0.0632738173007965088
-0.238045632839202881 -0.200570672750473022 -0.0526804327964782715
-0.234183043241500854 -0.212150901556015015 -0.056675642728805542
-0.233177483081817627 -0.207301586866378784 -0.069621652364730835
-0.236593753099441528 -0.197283804416656494 -0.0657339692115783691
-0.260671079158782959 -0.179988503456115723 -0.0728982686996459961
-0.253149092197418213 -0.185412138700485229 -0.0686394274234771729
-0.26032412052154541 -0.184903383255004883 -0.0794066488742828369
-0.269721835851669312 -0.178886115550994873 -0.0835660994052886963
-0.266808092594146729 -0.174829363822937012 -0.0775873661041259766
-0.275317877531051636 -0.172002196311950684 -0.0867241024971008301
-0.278304100036621094 -0.187201797962188721 -0.0835643112659454346
-0.284195452928543091 -0.175336837768554688 -0.086628258228302002
-0.300419390201568604 -0.187867641448974609 -0.0644131302833557129
-0.306671261787414551 -0.186821281909942627 -0.0541716814041137695
-0.309574484825134277 -0.173441946506500244 -0.0604433119297027588
-0.301508188247680664 -0.174113333225250244 -0.0701296031475067139
-0.314797490835189819 -0.173116087913513184 -0.0383524000644683838
-0.31220930814743042 -0.172131776809692383 -0.0498592555522918701
-0.309564173221588135 -0.186261355876922607 -0.0445138514041900635
-0.311303645372390747 -0.186377465724945068 -0.0341527462005615234
-0.275827586650848389 -0.182645618915557861 -0.0385887026786804199
-0.271041423082351685 -0.189591675996780396 -0.0324102938175201416
-0.2671336829662323 -0.189168095588684082 -0.0391567349433898926
-0.272411972284317017 -0.182500660419464111 -0.0445715785026550293
-0.255687117576599121 -0.192281424999237061 -0.0880472362041473389
-0.264719575643539429 -0.195789933204650879 -0.0828208029270172119
-0.26460951566696167 -0.189203202724456787 -0.0832310318946838379
-0.254409432411193848 -0.188933610916137695 -0.0864120721817016602
-0.265478134155273438 -0.203087508678436279 -0.0062567591667175293
-0.262505173683166504 -0.214886754751205444 -0.002899169921875
-0.257898718118667603 -0.217488944530487061 -0.0108185708522796631
-0.26111409068107605 -0.206342995166778564 -0.0127602219581604004
-0.240044534206390381 -0.221019178628921509 -0.0352798104286193848
-0.245896637439727783 -0.224743783473968506 -0.0273220837116241455
-0.24735906720161438 -0.236751973628997803 -0.0372424125671386719
-0.244686350226402283 -0.231576651334762573 -0.044663846492767334
-0.236324846744537354 -0.216781824827194214 -0.0448897778987884521
-0.242067664861679077 -0.226910293102264404 -0.0526825487613677979
-0.23996250331401825 -0.221056252717971802 -0.0629936754703521729
-0.237770825624465942 -0.21470874547958374 -0.0751526355743408203
-0.270123779773712158 -0.213569343090057373 0.00498658418655395508
-0.27321857213973999 -0.204478353261947632 0.00493821501731872559
-0.274132877588272095 -0.11941218376159668 -0.0893582403659820557
-0.275554269552230835 -0.117475450038909912 -0.0839449763298034668
-0.276024341583251953 -0.123470127582550049 -0.0838583111763000488
-0.274410426616668701 -0.125492274761199951 -0.089277312159538269
-0.293090760707855225 -0.210288673639297485 0.00419571995735168457
-0.299959123134613037 -0.213421761989593506 -0.00315722823143005371
-0.296230137348175049 -0.219926953315734863 0.000110447406768798828
-0.288150250911712646 -0.216838479042053223 0.00572872161865234375
-0.29874071478843689 -0.202971786260604858 0.00255408883094787598
-0.304364591836929321 -0.20658835768699646 -0.00687560439109802246
-0.283695518970489502 -0.117487668991088867 -0.0971296429634094238
-0.278751015663146973 -0.119307100772857666 -0.0970479846000671387
-0.280310869216918945 -0.125285029411315918 -0.0968786478042602539
-0.285596251487731934 -0.123679399490356445 -0.0966180413961410522
-0.267540007829666138 -0.172935426235198975 -0.0681827664375305176
-0.271469205617904663 -0.173988163471221924 -0.0587242245674133301
-0.27432677149772644 -0.157207071781158447 -0.073126673698425293
-0.274530768394470215 -0.165394604206085205 -0.0644294023513793945
-0.270161688327789307 -0.166555404663085938 -0.0738859474658966064
-0.271963238716125488 -0.160346031188964844 -0.079243093729019165
-0.284664630889892578 -0.166231930255889893 -0.0444675087928771973
-0.281860411167144775 -0.174886167049407959 -0.0395862460136413574
-0.278727501630783081 -0.173827886581420898 -0.0480932295322418213
-0.281510651111602783 -0.164758443832397461 -0.0524299740791320801
-0.285707712173461914 -0.172420024871826172 -0.0264224708080291748
-0.289011061191558838 -0.164313256740570068 -0.0311991572380065918
-0.290887951850891113 -0.16273730993270874 -0.0243629515171051025
-0.287636011838912964 -0.170161128044128418 -0.0206886827945709229
-0.292759627103805542 -0.149103164672851562 -0.044546172022819519
-0.297101855278015137 -0.141805708408355713 -0.0480233132839202881
-0.300205051898956299 -0.141283988952636719 -0.043070867657661438
-0.29539605975151062 -0.14846503734588623 -0.039225161075592041
-0.293415307998657227 -0.225706279277801514 0.00287279486656188965
-0.28466421365737915 -0.222910642623901367 0.00720715522766113281
-0.316163480281829834 -0.173461496829986572 -0.0164324343204498291
-0.311219602823257446 -0.172832787036895752 -0.00650566816329956055
-0.314903467893600464 -0.162931919097900391 -0.00863692164421081543
-0.319429993629455566 -0.163453102111816406 -0.0183955729007720947
-0.303576111793518066 -0.216651290655136108 -0.0127779245376586914
-0.30121612548828125 -0.223091840744018555 -0.00933027267456054688
-0.28833356499671936 -0.115152895450592041 -0.0937552899122238159
-0.290429174900054932 -0.121338248252868652 -0.0933633893728256226
-0.251360625028610229 -0.223287969827651978 -0.065890878438949585
-0.247597426176071167 -0.21623682975769043 -0.0777177810668945312
-0.2542094886302948 -0.229416161775588989 -0.0561710596084594727
-0.256174176931381226 -0.234606742858886719 -0.0495459139347076416
-0.257194042205810547 -0.241204708814620972 -0.044920116662979126
-0.278758138418197632 -0.159846484661102295 -0.0620260536670684814
-0.274548649787902832 -0.176898062229156494 -0.0500858724117279053
-0.277728527784347534 -0.182502508163452148 -0.0334613919258117676
-0.287898421287536621 -0.174180805683135986 -0.00462630391120910645
-0.285269647836685181 -0.180368244647979736 -0.000682413578033447266
-0.280590206384658813 -0.180396020412445068 -0.0101952850818634033
-0.285008698701858521 -0.174904167652130127 -0.0119594335556030273
-0.303310990333557129 -0.170008659362792969 -0.00187852978706359863
-0.296448677778244019 -0.167567551136016846 -0.00397247076034545898
-0.300118774175643921 -0.160133302211761475 -0.00692844390869140625
-0.307043194770812988 -0.161443889141082764 -0.00452288985252380371
-0.255174815654754639 -0.196370869874954224 -0.0910674035549163818
-0.261345267295837402 -0.202128827571868896 -0.0829414129257202148
-0.283647686243057251 -0.2070961594581604 0.00801357626914978027
-0.279219716787338257 -0.214313536882400513 0.00813171267509460449
-0.276060104370117188 -0.221620917320251465 0.00796672701835632324
-0.265799641609191895 -0.197514712810516357 -0.0216545462608337402
-0.257815420627593994 -0.20808941125869751 -0.0170684158802032471
-0.252701878547668457 -0.208441108465194702 -0.0226181745529174805
-0.262886583805084229 -0.1975441575050354 -0.0264712870121002197
-0.251660048961639404 -0.193993896245956421 -0.0433234870433807373
-0.241800948977470398 -0.203991472721099854 -0.0400962531566619873
-0.246993333101272583 -0.191529273986816406 -0.0548715293407440186
-0.252694904804229736 -0.220399290323257446 -0.0173902213573455811
-0.256771445274353027 -0.227184176445007324 -0.00958713889122009277
-0.251763582229614258 -0.230448871850967407 -0.0172103941440582275
-0.262190759181976318 -0.224136412143707275 -0.00162860751152038574
-0.268525213003158569 -0.221994996070861816 0.00472885370254516602
-0.254143595695495605 -0.236429929733276367 -0.00714093446731567383
-0.24980473518371582 -0.240092694759368896 -0.0149897933006286621
-0.260168701410293579 -0.23340684175491333 0.000508725643157958984
-0.26668393611907959 -0.231302320957183838 0.00648522377014160156
-0.29877239465713501 -0.240291833877563477 -0.000805109739303588867
-0.29095083475112915 -0.235914707183837891 0.0068753361701965332
-0.299800276756286621 -0.230663716793060303 -0.00548812747001647949
-0.249569982290267944 -0.247161597013473511 -0.0337590575218200684
-0.248199403285980225 -0.234038978815078735 -0.0265262722969055176
-0.247842103242874146 -0.243176162242889404 -0.0239151120185852051
-0.257361233234405518 -0.250219136476516724 -0.0412103831768035889
-0.235680222511291504 -0.195514649152755737 -0.0755025148391723633
-0.234939947724342346 -0.192925006151199341 -0.0838460028171539307
-0.241177022457122803 -0.187866479158401489 -0.0825574398040771484
-0.243139594793319702 -0.189900517463684082 -0.0749566555023193359
-0.27939113974571228 -0.163934707641601562 -0.0894456803798675537
-0.27361413836479187 -0.162749886512756348 -0.0855771899223327637
-0.270588696002960205 -0.169095396995544434 -0.0820113420486450195
-0.271520614624023438 -0.194027245044708252 -0.00578251481056213379
-0.277910023927688599 -0.195284485816955566 0.00431302189826965332
-0.278361290693283081 -0.153762996196746826 -0.0689515769481658936
-0.286835253238677979 -0.131351470947265625 -0.0956651568412780762
-0.281064450740814209 -0.132786571979522705 -0.0958103686571121216
-0.281401634216308594 -0.145793437957763672 -0.093430742621421814
-0.288123488426208496 -0.143721699714660645 -0.0937290191650390625
-0.285167932510375977 -0.144670009613037109 -0.0703275352716445923
-0.279451072216033936 -0.148322582244873047 -0.0729103237390518188
-0.279501229524612427 -0.14040297269821167 -0.0751743912696838379
-0.285532265901565552 -0.13716202974319458 -0.0737871080636978149
-0.301388800144195557 -0.142576456069946289 -0.035665556788444519
-0.297568619251251221 -0.147961795330047607 -0.0324193835258483887
-0.299402683973312378 -0.157548844814300537 -0.0725791901350021362
-0.295254707336425781 -0.163439810276031494 -0.0837353765964508057
-0.294615268707275391 -0.17705535888671875 -0.0809161663055419922
-0.287235915660858154 -0.165631651878356934 -0.0374503135681152344
-0.289689958095550537 -0.157107174396514893 -0.0412153005599975586
-0.291951894760131836 -0.156029462814331055 -0.0354996025562286377
-0.281248956918716431 -0.156338930130004883 -0.0609929561614990234
-0.282176226377487183 -0.15145033597946167 -0.0652578473091125488
-0.285008400678634644 -0.151811480522155762 -0.0593300312757492065
-0.283238440752029419 -0.157985925674438477 -0.0554108321666717529
-0.307611674070358276 -0.183846354484558105 -0.00358372926712036133
-0.297429949045181274 -0.179537594318389893 0.00265026092529296875
-0.275405406951904297 -0.120090126991271973 -0.0940904617309570312
-0.276139497756958008 -0.126029014587402344 -0.0941037833690643311
-0.281521916389465332 -0.232589840888977051 0.0100862681865692139
-0.273512721061706543 -0.230856478214263916 0.00984740257263183594
-0.283870816230773926 -0.174294769763946533 -0.0329409539699554443
-0.29175153374671936 -0.189229190349578857 -0.0747328102588653564
-0.279160410165786743 -0.181826412677764893 -0.0279470086097717285
-0.316754311323165894 -0.151186525821685791 -0.0341611951589584351
-0.313865572214126587 -0.148667335510253906 -0.0275463014841079712
-0.313690781593322754 -0.143248260021209717 -0.0315337926149368286
-0.318383932113647461 -0.144150018692016602 -0.0361920148134231567
-0.28597027063369751 -0.126023709774017334 -0.077238038182258606
-0.280065059661865234 -0.128434598445892334 -0.0787189453840255737
-0.280316352844238281 -0.12091374397277832 -0.0800531357526779175
-0.285831034183502197 -0.11883389949798584 -0.0787817388772964478
-0.275572210550308228 -0.151926159858703613 -0.0768265873193740845
-0.273645341396331787 -0.154748320579528809 -0.082375645637512207
-0.274069666862487793 -0.146120309829711914 -0.084678351879119873
-0.275358200073242188 -0.143593251705169678 -0.079072117805480957
-0.275907963514328003 -0.155879735946655273 -0.0878999978303909302
-0.276433765888214111 -0.146696925163269043 -0.0901276469230651855
-0.291979432106018066 -0.124717533588409424 -0.0794130861759185791
-0.294529259204864502 -0.126149177551269531 -0.0857715606689453125
-0.295815378427505493 -0.138225555419921875 -0.0827334374189376831
-0.292189717292785645 -0.135728955268859863 -0.0767221599817276001
-0.307982563972473145 -0.198943793773651123 -0.029682844877243042
-0.309176623821258545 -0.198226779699325562 -0.0199947655200958252
-0.312765777111053467 -0.185795307159423828 -0.0236084461212158203
-0.316105514764785767 -0.17304462194442749 -0.02706947922706604
-0.315927386283874512 -0.160103201866149902 -0.0295619666576385498
-0.316548943519592285 -0.160164415836334229 -0.0417246520519256592
-0.312289118766784668 -0.185420870780944824 -0.0140561163425445557
-0.295768618583679199 -0.145229637622833252 -0.0703425854444503784
-0.296193718910217285 -0.148008942604064941 -0.0778450071811676025
-0.301233053207397461 -0.146966457366943359 -0.0713383257389068604
-0.281084746122360229 -0.179867088794708252 -0.0201949179172515869
-0.27642822265625 -0.133554816246032715 -0.0929660499095916748
-0.280686169862747192 -0.232894450426101685 -0.04805755615234375
-0.291406422853469849 -0.230798125267028809 -0.040780186653137207
-0.293686479330062866 -0.221503525972366333 -0.0447163283824920654
-0.280690014362335205 -0.225208580493927002 -0.0527183115482330322
-0.275719493627548218 -0.131132543087005615 -0.0823567509651184082
-0.274124950170516968 -0.132930994033813477 -0.0877362489700317383
-0.301693707704544067 -0.14685976505279541 -0.0268365293741226196
-0.304493308067321777 -0.142527341842651367 -0.0307708084583282471
-0.308798462152481079 -0.14185255765914917 -0.0286061763763427734
-0.307767719030380249 -0.144982993602752686 -0.0243152827024459839
-0.308716952800750732 -0.197097927331924438 -0.0108642578125
-0.318224012851715088 -0.156248211860656738 -0.0101304948329925537
-0.322298616170883179 -0.155897974967956543 -0.0191857516765594482
-0.306365311145782471 -0.208904027938842773 -0.0161671936511993408
-0.30508914589881897 -0.21019059419631958 -0.0260036587715148926
-0.303159832954406738 -0.219050377607345581 -0.0233759582042694092
-0.311223089694976807 -0.155274093151092529 -0.0535900890827178955
-0.30624803900718689 -0.199113726615905762 -0.0390118062496185303
-0.303080350160598755 -0.210730820894241333 -0.0347926318645477295
-0.299961298704147339 -0.220367759466171265 -0.0328071415424346924
-0.298103213310241699 -0.227993041276931763 -0.0305157601833343506
-0.301532208919525146 -0.225787132978439331 -0.0208491384983062744
-0.292051076889038086 -0.12881159782409668 -0.0920983105897903442
-0.292884379625320435 -0.118861079216003418 -0.0873510390520095825
-0.300308942794799805 -0.234213203191757202 -0.0171991288661956787
-0.299949526786804199 -0.243455886840820312 -0.0120998919010162354
-0.295920431613922119 -0.246740162372589111 -0.0220583975315093994
-0.296677201986312866 -0.236992895603179932 -0.0268768668174743652
-0.299347847700119019 -0.210785716772079468 -0.0438757836818695068
-0.294000089168548584 -0.211930304765701294 -0.0522608160972595215
-0.303040474653244019 -0.199222147464752197 -0.0481428205966949463
-0.297551393508911133 -0.20006948709487915 -0.057848125696182251
-0.309361398220062256 -0.159045398235321045 -0.064542919397354126
-0.287244528532028198 -0.103590488433837891 -0.0838858485221862793
-0.289200097322463989 -0.111760437488555908 -0.0826136469841003418
-0.285254597663879395 -0.112418949604034424 -0.0794223099946975708
-0.284229069948196411 -0.10392606258392334 -0.0806366503238677979
-0.290809869766235352 -0.117894411087036133 -0.0814023017883300781
-0.290782809257507324 -0.112771034240722656 -0.0880763381719589233
-0.28806149959564209 -0.201041251420974731 -0.067959904670715332
-0.288242340087890625 -0.145389020442962646 -0.0637486577033996582
-0.280258893966674805 -0.214238464832305908 -0.0617626309394836426
-0.277046620845794678 -0.199488371610641479 -0.0784922540187835693
-0.270459383726119995 -0.208569109439849854 -0.0750118494033813477
-0.267166614532470703 -0.228955984115600586 -0.0571792423725128174
-0.264173924922943115 -0.221947997808456421 -0.0654477477073669434
-0.268866598606109619 -0.242010980844497681 -0.0470593273639678955
-0.268432080745697021 -0.235115557909011841 -0.0513620376586914062
-0.268565952777862549 -0.251426637172698975 -0.0430504977703094482
-0.259021401405334473 -0.214496016502380371 -0.0767124295234680176
-0.27285611629486084 -0.111210346221923828 -0.0889842808246612549
-0.274806380271911621 -0.109420478343963623 -0.083538249135017395
-0.28039202094078064 -0.240662634372711182 -0.0441910624504089355
-0.279810786247253418 -0.250209003686904907 -0.0397922396659851074
-0.244681656360626221 -0.190051645040512085 -0.065881192684173584
-0.275133907794952393 -0.187526702880859375 -0.0169954895973205566
-0.27397492527961731 -0.188877731561660767 -0.0230656862258911133
-0.282057225704193115 -0.18683353066444397 0.00236353278160095215
-0.276395261287689209 -0.186249673366546631 -0.0081691443920135498
-0.289688915014266968 -0.248783111572265625 -0.0320664346218109131
-0.249547719955444336 -0.249505460262298584 -0.00321710109710693359
-0.255311638116836548 -0.246796607971191406 0.00476765632629394531
-0.29522433876991272 -0.258813083171844482 -0.0150581002235412598
-0.27375677227973938 -0.111711561679840088 -0.093899846076965332
-0.303825706243515015 -0.139049947261810303 -0.0501822382211685181
-0.305718362331390381 -0.139176070690155029 -0.0483225882053375244
-0.23272395133972168 -0.203658431768417358 -0.0793665647506713867
-0.233194485306739807 -0.19874042272567749 -0.0874439775943756104
-0.242598891258239746 -0.20328986644744873 -0.0941735506057739258
-0.236140966415405273 -0.202226549386978149 -0.0915854871273040771
-0.236267015337944031 -0.209208369255065918 -0.084472954273223877
-0.244460135698318481 -0.21037563681602478 -0.0869907736778259277
-0.267603814601898193 -0.19659876823425293 -0.0177870988845825195
-0.269564509391784668 -0.194865107536315918 -0.0129218101501464844
-0.303648561239242554 -0.194057852029800415 -0.000399619340896606445
-0.293870687484741211 -0.189692437648773193 0.00579273700714111328
-0.281324923038482666 -0.155601859092712402 -0.0913546532392501831
-0.287461549043655396 -0.163799762725830078 -0.0890147984027862549
-0.28864249587059021 -0.154077053070068359 -0.0910369753837585449
-0.293670386075973511 -0.141620278358459473 -0.0895123481750488281
-0.291988462209701538 -0.143627405166625977 -0.0688469856977462769
-0.291684269905090332 -0.142993450164794922 -0.0734611153602600098
-0.247173219919204712 -0.206696808338165283 -0.030040740966796875
-0.257982909679412842 -0.19630315899848938 -0.033647388219833374
-0.251228451728820801 -0.186873793601989746 -0.0761415362358093262
-0.249898314476013184 -0.186885446310043335 -0.0832549929618835449
-0.28633919358253479 -0.158257663249969482 -0.0480059683322906494
-0.311487674713134766 -0.144057691097259521 -0.0593954175710678101
-0.309480339288711548 -0.147417128086090088 -0.0674752742052078247
-0.288599282503128052 -0.151178836822509766 -0.0515515506267547607
-0.281322896480560303 -0.108901917934417725 -0.096951022744178772
-0.27656930685043335 -0.110693275928497314 -0.0968169271945953369
-0.294830799102783203 -0.152173995971679688 -0.0864998102188110352
-0.294137507677078247 -0.154821097850799561 -0.028438568115234375
-0.312366634607315063 -0.145579874515533447 -0.0507575124502182007
-0.30920332670211792 -0.140589296817779541 -0.054220050573348999
-0.310030907392501831 -0.156566083431243896 -0.00655952095985412598
-0.290318012237548828 -0.238859713077545166 -0.0368079841136932373
-0.279796183109283447 -0.114750146865844727 -0.0798185914754867554
-0.279135137796401978 -0.106543838977813721 -0.0797868520021438599
-0.288117110729217529 -0.104788541793823242 -0.0884527713060379028
-0.285900384187698364 -0.106988370418548584 -0.0937050879001617432
-0.289057761430740356 -0.198665887117385864 0.00755003094673156738
-0.27285119891166687 -0.189546018838882446 -0.0278082191944122314
-0.262398093938827515 -0.244804024696350098 0.0116082429885864258
-0.254203617572784424 -0.20829436182975769 -0.0861765742301940918
-0.250430792570114136 -0.201100051403045654 -0.0941229760646820068
-0.291487991809844971 -0.144891083240509033 -0.0546832680702209473
-0.318397223949432373 -0.152680516242980957 -0.0252279937267303467
-0.318406999111175537 -0.150743305683135986 -0.0434255152940750122
-0.319877982139587402 -0.143557071685791016 -0.0442728400230407715
-0.315421193838119507 -0.14083099365234375 -0.05030021071434021
-0.310488700866699219 -0.137995719909667969 -0.0501897633075714111
-0.286540955305099487 -0.0983265042304992676 -0.088731229305267334
